X	Y	Z
14.81	4.14	-0.27
7.55	0.20	-0.13
7.57	-0.08	-0.13
6.84	-3.07	-0.11
6.78	-3.32	-0.10
-3.71	5.91	0.32
-3.59	7.40	0.31
-3.60	6.79	0.21
6.87	-3.64	-0.11
6.80	-3.88	-0.11
-3.72	5.96	0.32
-3.58	7.42	0.31
-3.59	6.81	0.21
-3.71	5.98	0.32
-3.56	7.45	0.31
-3.62	6.91	0.22
-3.70	6.02	0.32
-3.57	7.54	0.31
-3.60	6.93	0.22
-3.68	6.02	0.32
-3.57	7.59	0.31
-3.59	6.96	0.22
-3.70	6.10	0.32
-3.55	7.62	0.31
-3.57	6.98	0.22
-3.69	6.12	0.32
-3.61	7.79	0.32
-3.61	7.10	0.22
6.78	-3.70	-0.12
6.77	-3.97	-0.12
6.78	-4.29	-0.13
6.53	-4.45	-0.13
6.70	-4.88	-0.14
6.66	-5.22	-0.14
6.85	-7.04	-0.17
5.98	-6.59	-0.16
5.35	-6.30	-0.15
-3.68	6.15	0.32
-3.59	7.81	0.32
-3.59	7.13	0.22
5.14	-6.53	-0.15
5.26	-7.16	-0.16
7.14	-11.32	-0.24
6.51	-11.19	-0.24
6.14	-11.46	-0.25
5.57	-11.34	-0.24
5.08	-11.30	-0.23
3.93	-11.91	-0.26
0.60	-3.94	-0.08
0.48	-4.00	-0.08
0.31	-3.55	-0.07
0.20	-3.54	-0.07
0.09	-3.39	-0.07
-3.67	6.17	0.32
-3.58	7.86	0.32
-3.61	7.21	0.22
7.57	-3.03	-0.15
0.51	-3.28	0.05
0.41	-3.30	0.05
0.30	-3.31	0.05
0.20	-3.38	0.05
0.09	-3.42	0.05
8.58	-3.08	-0.25
-3.69	6.24	0.33
-3.56	7.87	0.32
-3.60	7.25	0.22
-3.67	6.25	0.33
-3.57	7.97	0.32
-3.60	7.32	0.22
-2.52	-3.44	0.04
-2.49	-3.49	0.04
-3.65	6.27	0.33
-3.58	8.05	0.33
-3.59	7.34	0.23
-2.48	-3.49	0.04
-2.46	-3.49	0.04
7.54	-3.05	-0.15
8.54	-3.09	-0.25
6.82	-3.35	-0.27
-2.44	-3.50	0.04
-2.69	-3.58	0.08
-3.65	6.30	0.33
-3.55	8.06	0.33
-3.57	7.37	0.23
-2.41	-3.49	0.04
-2.40	-3.49	0.04
-2.39	-3.50	0.04
6.82	-3.30	-0.27
8.60	-3.06	-0.25
7.64	-3.03	-0.15
-3.65	6.35	0.33
-3.53	8.08	0.33
-3.56	7.39	0.23
-2.38	-3.51	0.04
-2.55	-3.48	0.08
-2.37	-3.52	0.04
-2.53	-3.48	0.08
-3.63	6.38	0.33
-3.56	8.21	0.33
-3.59	7.53	0.23
-2.37	-3.54	0.04
-2.50	-3.45	0.08
-2.36	-3.56	0.04
-2.46	-3.43	0.08
7.51	-3.06	-0.15
6.84	-3.39	-0.27
-3.63	6.41	0.33
-3.57	8.30	0.34
-3.59	7.58	0.23
-2.35	-3.57	0.04
-2.48	-3.47	0.08
7.32	-3.01	-0.14
-2.34	-3.57	0.04
-2.44	-3.45	0.08
6.83	-3.41	-0.27
-3.65	6.49	0.34
-3.56	8.35	0.34
-3.57	7.61	0.23
-2.33	-3.58	0.04
-2.44	-3.47	0.08
6.81	-3.27	-0.27
8.62	-3.03	-0.25
7.73	-3.04	-0.15
-3.65	6.55	0.34
-3.54	8.39	0.34
-3.55	7.63	0.23
-2.32	-3.59	0.04
-2.46	-3.51	0.08
-3.65	6.59	0.34
-3.54	8.45	0.34
-3.57	7.71	0.23
-2.31	-3.59	0.04
-2.42	-3.49	0.08
7.26	-3.01	-0.14
8.21	-3.06	-0.24
6.80	-3.42	-0.27
-2.31	-3.61	0.04
-2.41	-3.48	0.08
-3.65	6.64	0.34
-3.53	8.50	0.34
-3.57	7.79	0.24
-2.30	-3.62	0.04
-2.40	-3.50	0.08
7.17	-3.00	-0.14
6.79	-3.44	-0.27
-3.64	6.68	0.34
-3.54	8.61	0.35
-3.56	7.83	0.24
-2.29	-3.63	0.04
-2.38	-3.49	0.08
6.82	-3.25	-0.27
8.67	-3.02	-0.26
7.72	-3.01	-0.15
-3.64	6.72	0.35
-3.54	8.68	0.35
-3.56	7.90	0.24
-2.28	-3.64	0.04
-2.37	-3.50	0.08
-2.93	-3.72	0.18
7.11	-3.00	-0.14
-3.63	6.75	0.35
-3.58	8.86	0.36
-3.58	8.00	0.24
-2.27	-3.65	0.04
-2.37	-3.52	0.08
8.02	-3.05	-0.24
6.81	-3.48	-0.28
-2.26	-3.67	0.04
-2.35	-3.52	0.08
-2.50	-3.47	0.12
-3.63	6.81	0.35
-3.59	8.96	0.36
-3.56	8.03	0.24
-2.84	-3.65	0.17
7.04	-3.00	-0.14
8.06	-3.09	-0.24
6.80	-3.50	-0.27
6.82	-3.23	-0.27
8.70	-3.01	-0.26
7.93	-3.06	-0.16
-2.25	-3.68	0.04
-2.34	-3.52	0.08
-3.65	6.88	0.35
-3.56	8.95	0.36
-3.56	8.09	0.24
-2.91	-3.76	0.18
6.96	-2.99	-0.14
-2.24	-3.68	0.04
-3.64	6.92	0.35
-4.92	12.49	0.50
-3.56	8.17	0.25
-2.34	-3.55	0.08
-2.53	-3.55	0.12
-2.91	-3.78	0.18
8.00	-3.10	-0.24
6.78	-3.52	-0.27
-3.59	6.88	0.35
-3.55	8.21	0.25
-2.24	-3.70	0.04
-2.32	-3.55	0.08
-2.48	-3.50	0.12
-2.89	-3.78	0.18
6.90	-2.98	-0.14
7.70	-3.01	-0.23
6.77	-3.54	-0.27
6.84	-3.21	-0.27
14.72	-5.03	-0.43
7.86	-3.01	-0.15
-3.63	7.01	0.36
-3.55	8.26	0.25
-2.24	-3.73	0.04
-2.31	-3.54	0.08
-2.51	-3.56	0.12
-2.80	-3.69	0.17
-3.63	7.05	0.36
-4.60	12.00	0.48
-3.55	8.34	0.25
-2.22	-3.73	0.04
6.88	-3.00	-0.14
7.71	-3.04	-0.23
6.90	-3.63	-0.28
-3.62	7.08	0.36
-4.55	11.97	0.48
-3.53	8.37	0.25
-2.21	-3.73	0.04
-2.29	-3.56	0.08
-2.47	-3.56	0.12
-2.71	-3.62	0.17
6.82	-3.17	-0.27
14.74	-4.99	-0.43
8.07	-3.06	-0.16
6.89	-3.03	-0.14
-3.61	7.13	0.36
-4.44	11.80	0.47
-3.53	8.45	0.25
-2.51	-3.36	0.00
-2.21	-3.76	0.04
-2.28	-3.58	0.08
-2.50	-3.62	0.12
-2.67	-3.58	0.17
7.61	-3.03	-0.23
6.93	-3.68	-0.28
-3.62	7.19	0.36
-4.41	11.84	0.47
-3.53	8.50	0.25
6.89	-3.06	-0.14
-2.56	-3.46	0.00
-2.17	-3.73	0.04
-2.30	-3.63	0.08
-3.63	7.27	0.37
-4.36	11.80	0.47
-3.50	8.53	0.25
-2.40	-3.51	0.12
-2.65	-3.58	0.17
7.58	-3.04	-0.23
6.82	-3.15	-0.27
14.75	-4.94	-0.43
8.10	-3.04	-0.16
-3.61	7.30	0.37
-4.32	11.81	0.47
-3.57	8.77	0.26
-2.56	-3.47	0.00
-2.18	-3.76	0.04
-2.30	-3.65	0.08
-2.39	-3.51	0.12
-2.65	-3.61	0.17
-3.61	7.34	0.37
-4.26	11.76	0.47
-3.59	8.88	0.26
6.87	-3.07	-0.14
7.56	-3.06	-0.23
6.83	-3.68	-0.28
-2.50	-3.41	0.00
-2.15	-3.74	0.04
-3.60	7.39	0.37
-4.20	11.70	0.46
-3.59	8.96	0.27
-2.27	-3.63	0.08
-2.38	-3.52	0.12
-2.64	-3.61	0.17
6.84	-3.13	-0.27
14.72	-4.88	-0.43
8.24	-3.07	-0.16
-3.60	7.44	0.37
-4.18	11.76	0.46
-3.56	8.97	0.27
-2.51	-3.46	0.00
-2.15	-3.76	0.04
-2.25	-3.63	0.08
-2.62	-3.61	0.17
6.85	-3.09	-0.14
7.47	-3.05	-0.23
-3.61	7.51	0.38
-4.12	11.72	0.46
6.80	-3.69	-0.28
-2.49	-3.46	0.00
-2.22	-3.60	0.08
-2.35	-3.52	0.12
-3.62	7.60	0.38
-4.08	11.72	0.46
-4.35	11.16	0.33
-2.59	-3.59	0.16
6.84	-3.11	-0.14
7.48	-3.08	-0.23
6.80	-3.72	-0.28
6.85	-3.11	-0.27
14.74	-4.84	-0.43
-3.61	7.64	0.38
-3.98	11.52	0.45
-4.36	11.28	0.33
-2.48	-3.45	0.00
-2.15	-3.82	0.04
-2.23	-3.64	0.08
-2.37	-3.57	0.12
-2.55	-3.55	0.16
8.27	-3.05	-0.16
-3.62	7.72	0.39
-3.94	11.53	0.45
-4.32	11.29	0.33
6.83	-3.13	-0.14
7.31	-3.04	-0.22
-3.61	7.75	0.39
-3.90	11.53	0.45
-4.28	11.30	0.33
-2.48	-3.48	0.00
-2.17	-3.87	0.04
-2.21	-3.64	0.08
-2.58	-3.62	0.17
6.79	-3.74	-0.28
6.80	-3.14	-0.14
7.19	-3.01	-0.22
-3.58	7.77	0.39
-3.87	11.56	0.45
-4.24	11.29	0.33
6.87	-3.10	-0.27
8.37	-3.05	-0.16
-2.48	-3.50	0.00
-2.16	-3.89	0.04
-2.20	-3.65	0.08
-2.34	-3.57	0.12
-3.58	7.83	0.39
-3.85	11.63	0.46
-4.19	11.26	0.33
-2.56	-3.62	0.16
6.79	-3.76	-0.28
6.79	-3.16	-0.14
7.06	-2.99	-0.21
6.78	-3.78	-0.28
-3.60	7.92	0.39
-3.82	11.65	0.46
-4.15	11.26	0.33
-2.48	-3.53	0.00
-2.14	-3.89	0.04
-2.20	-3.67	0.08
-2.41	-3.71	0.12
-2.51	-3.57	0.16
-3.79	11.66	0.46
-4.11	11.26	0.33
6.82	-3.20	-0.14
6.87	-3.07	-0.27
8.63	-3.12	-0.17
-3.58	8.03	0.40
-4.07	11.25	0.33
-2.47	-3.53	0.00
-2.11	-3.85	0.04
-2.23	-3.74	0.08
-2.34	-3.62	0.12
-2.54	-3.64	0.17
-4.03	11.24	0.33
6.96	-2.97	-0.21
6.77	-3.81	-0.28
6.84	-3.24	-0.14
6.91	-2.97	-0.21
6.76	-3.83	-0.28
-3.59	8.17	0.40
-3.99	11.25	0.33
-2.46	-3.54	0.00
-2.13	-3.92	0.04
-2.18	-3.70	0.08
-2.30	-3.59	0.12
-2.46	-3.55	0.16
-3.95	11.25	0.33
14.75	-4.69	-0.43
8.59	-3.08	-0.17
-3.92	11.26	0.33
-2.39	-3.47	0.00
-2.11	-3.91	0.04
-2.20	-3.75	0.08
-2.49	-3.61	0.16
-3.56	11.69	0.45
-3.88	11.28	0.33
6.85	-3.27	-0.14
6.88	-2.98	-0.21
6.76	-3.86	-0.28
6.83	-3.28	-0.14
6.87	-3.00	-0.21
6.75	-3.88	-0.28
-3.84	11.27	0.33
-2.46	-3.60	0.00
-2.09	-3.91	0.04
-2.16	-3.71	0.08
-2.26	-3.57	0.12
-3.81	11.27	0.33
-2.50	-3.66	0.16
6.90	-3.03	-0.27
14.73	-4.64	-0.43
8.67	-3.07	-0.17
-3.45	11.72	0.45
-3.76	11.26	0.33
-3.71	11.23	0.33
-2.46	-3.61	0.00
-2.12	-3.98	0.04
-2.17	-3.75	0.08
-2.31	-3.67	0.12
-2.50	-3.67	0.17
6.82	-3.31	-0.14
6.86	-3.02	-0.21
6.78	-3.92	-0.28
6.88	-3.00	-0.27
-3.65	11.26	0.33
-2.42	-3.58	0.00
-2.17	-3.78	0.08
-2.33	-3.73	0.12
-2.43	-3.59	0.16
14.73	-4.58	-0.43
8.68	-3.05	-0.17
-3.62	11.28	0.33
6.81	-3.97	-0.28
6.76	-3.97	-0.28
-3.59	11.31	0.33
-2.41	-3.59	0.00
-2.10	-4.02	0.04
-2.16	-3.79	0.08
-2.25	-3.63	0.12
-3.56	11.34	0.33
-2.42	-3.61	0.16
6.78	-3.37	-0.14
6.81	-3.08	-0.21
6.75	-3.99	-0.28
-3.48	11.22	0.32
6.87	-2.97	-0.27
14.80	-4.56	-0.43
8.65	-3.01	-0.17
-3.49	11.37	0.33
-2.39	-3.58	0.00
-2.07	-3.99	0.04
-2.16	-3.82	0.08
-2.25	-3.66	0.12
-2.44	-3.66	0.16
-3.46	11.41	0.33
6.78	-3.39	-0.14
6.80	-3.10	-0.21
6.76	-4.02	-0.28
-3.43	11.41	0.33
-2.38	-3.60	0.00
-2.11	-4.10	0.04
-2.15	-3.83	0.08
-2.22	-3.63	0.12
-2.40	-3.62	0.16
-3.40	11.43	0.33
6.95	-2.98	-0.27
14.82	-4.51	-0.43
8.66	-2.98	-0.17
-3.36	11.44	0.33
6.79	-3.42	-0.14
-3.32	11.42	0.33
-2.36	-3.58	0.00
-2.15	-3.85	0.08
-2.30	-3.80	0.12
-2.46	-3.74	0.17
6.81	-3.13	-0.21
6.77	-4.06	-0.28
-3.29	11.48	0.33
6.79	-3.45	-0.14
6.80	-3.15	-0.21
6.76	-4.08	-0.28
-3.27	11.54	0.33
-2.36	-3.60	0.00
-2.09	-4.12	0.04
-3.24	11.57	0.33
-2.16	-3.89	0.08
-2.20	-3.65	0.12
-2.43	-3.71	0.16
7.27	-3.09	-0.28
14.77	-4.45	-0.43
-3.22	11.62	0.33
6.77	-3.46	-0.14
6.80	-3.17	-0.21
6.78	-4.12	-0.29
-3.18	11.62	0.33
-2.34	-3.60	0.00
-2.06	-4.09	0.04
-2.15	-3.91	0.08
-2.19	-3.65	0.12
-2.42	-3.72	0.16
-3.18	11.74	0.34
6.79	-3.50	-0.14
6.82	-3.21	-0.21
6.75	-4.13	-0.28
7.32	-3.08	-0.29
-3.16	11.80	0.34
-3.19	12.06	0.34
-2.32	-3.60	0.00
-2.06	-4.12	0.04
-2.13	-3.89	0.08
-2.23	-3.74	0.12
-2.37	-3.67	0.16
-3.17	12.17	0.35
6.77	-3.52	-0.14
6.82	-3.23	-0.21
6.75	-4.16	-0.28
-3.19	12.38	0.35
-3.17	12.47	0.35
-2.31	-3.61	0.00
-2.06	-4.15	0.04
-2.14	-3.95	0.08
-2.18	-3.68	0.12
-2.29	-3.57	0.16
7.37	-3.08	-0.29
14.84	-4.37	-0.43
-3.19	12.70	0.36
6.77	-3.54	-0.14
6.80	-3.25	-0.21
6.75	-4.19	-0.29
-3.15	12.74	0.36
-2.30	-3.62	0.00
-2.03	-4.12	0.04
-3.17	12.97	0.37
-2.12	-3.94	0.08
-2.20	-3.75	0.12
-2.32	-3.64	0.16
6.75	-3.56	-0.14
6.81	-3.28	-0.21
6.97	-4.35	-0.30
-3.18	13.17	0.37
7.36	-3.05	-0.29
14.82	-4.31	-0.43
-3.15	13.25	0.38
-2.29	-3.61	0.00
-2.04	-4.17	0.04
-2.13	-3.99	0.08
-2.16	-3.72	0.12
-3.15	13.44	0.38
-2.36	-3.74	0.16
6.76	-3.59	-0.14
6.78	-3.29	-0.21
6.94	-4.37	-0.30
-3.18	13.75	0.39
7.50	-3.08	-0.29
14.96	-4.31	-0.43
-3.16	13.84	0.39
-2.28	-3.63	0.00
-2.10	-3.95	0.08
-2.17	-3.75	0.12
-2.35	-3.74	0.16
-3.17	14.10	0.40
6.75	-3.61	-0.14
6.80	-3.33	-0.21
6.91	-4.37	-0.29
-3.15	14.19	0.40
-3.12	14.27	0.40
-2.26	-3.62	0.00
-2.03	-4.22	0.04
-2.09	-3.97	0.08
-2.16	-3.76	0.12
-2.34	-3.76	0.16
7.14	-3.85	-0.15
7.48	-3.05	-0.29
14.97	-4.26	-0.43
6.80	-3.35	-0.21
6.81	-4.34	-0.29
-2.26	-3.64	0.00
-2.03	-4.26	0.04
-2.11	-4.03	0.08
-2.11	-3.69	0.12
-2.38	-3.85	0.17
7.14	-3.88	-0.15
6.79	-3.37	-0.21
6.79	-4.36	-0.29
7.48	-3.02	-0.29
14.96	-4.21	-0.43
-2.28	-3.71	0.00
-1.96	-4.13	0.04
-2.09	-4.02	0.08
-2.17	-3.84	0.12
-2.34	-3.80	0.17
7.14	-3.90	-0.15
6.79	-3.40	-0.21
6.79	-4.39	-0.29
7.13	-3.93	-0.15
6.79	-3.43	-0.21
6.76	-4.39	-0.29
-2.27	-3.71	0.00
-2.00	-4.25	0.04
-2.08	-4.05	0.08
-2.15	-3.82	0.12
-2.32	-3.79	0.17
7.61	-3.04	-0.29
15.21	-4.23	-0.44
-2.26	-3.73	0.00
-2.07	-4.44	0.04
-2.10	-4.11	0.08
-2.14	-3.84	0.12
-2.31	-3.81	0.17
7.12	-3.95	-0.15
6.79	-3.45	-0.21
6.76	-4.42	-0.29
7.66	-3.04	-0.30
15.10	-4.15	-0.44
-2.23	-3.69	0.00
-2.00	-4.33	0.04
-2.07	-4.07	0.08
-2.31	-3.83	0.17
7.12	-3.98	-0.15
6.78	-3.48	-0.21
7.12	-4.01	-0.15
6.77	-3.50	-0.21
-2.21	-3.69	0.00
-2.03	-4.42	0.04
-2.08	-4.14	0.08
-2.13	-3.87	0.12
-2.30	-3.85	0.17
7.79	-3.06	-0.30
15.23	-4.13	-0.44
7.13	-4.04	-0.15
6.76	-3.52	-0.21
-2.20	-3.71	0.00
-2.04	-4.49	0.04
-2.09	-4.19	0.08
-2.13	-3.91	0.12
-2.30	-3.88	0.17
6.79	-4.54	-0.29
7.13	-4.07	-0.15
6.77	-3.55	-0.21
6.76	-4.55	-0.29
8.02	-3.12	-0.31
-2.18	-3.69	0.00
-2.02	-4.07	0.08
-2.14	-3.94	0.12
-2.30	-3.90	0.17
7.12	-4.10	-0.15
6.77	-3.57	-0.21
6.76	-4.57	-0.29
7.98	-3.08	-0.31
-2.17	-3.71	0.00
-2.04	-4.15	0.08
-2.13	-3.95	0.12
-2.27	-3.88	0.17
7.12	-4.13	-0.15
7.07	-3.76	-0.22
6.78	-4.62	-0.30
7.13	-4.16	-0.15
7.09	-3.80	-0.22
6.78	-4.65	-0.30
-2.17	-3.73	0.00
-2.01	-4.53	0.04
-2.05	-4.21	0.08
-2.15	-4.02	0.13
-2.27	-3.91	0.17
8.06	-3.08	-0.31
7.13	-4.19	-0.15
7.02	-3.79	-0.22
6.76	-4.66	-0.30
-2.18	-3.77	0.00
-2.06	-4.25	0.09
-2.16	-4.07	0.13
-2.27	-3.94	0.17
8.10	-3.07	-0.31
7.13	-4.22	-0.15
6.87	-3.73	-0.22
6.76	-4.69	-0.30
7.15	-4.26	-0.15
6.87	-3.76	-0.22
6.75	-4.72	-0.30
-2.17	-3.79	0.00
-1.99	-4.56	0.04
-2.11	-4.01	0.12
-2.24	-3.91	0.17
8.28	-3.11	-0.32
7.15	-4.29	-0.15
6.83	-3.77	-0.22
6.74	-4.75	-0.30
-2.14	-3.76	0.00
-2.00	-4.62	0.04
-2.10	-4.42	0.09
-2.14	-4.10	0.13
-2.22	-3.90	0.17
7.13	-4.31	-0.15
6.81	-3.78	-0.22
6.77	-4.79	-0.30
8.31	-3.09	-0.32
7.12	-4.33	-0.15
6.79	-3.80	-0.22
6.75	-4.81	-0.30
-2.16	-3.82	0.00
-1.97	-4.58	0.04
-2.09	-4.43	0.09
-2.12	-4.09	0.13
-2.22	-3.93	0.17
7.09	-4.34	-0.15
8.36	-3.08	-0.32
6.78	-3.82	-0.22
6.76	-4.85	-0.30
-2.16	-3.85	0.00
-2.00	-4.71	0.04
-2.02	-4.31	0.09
-2.12	-4.12	0.13
-2.19	-3.91	0.17
7.07	-4.36	-0.15
6.77	-3.85	-0.22
6.77	-4.90	-0.30
8.53	-3.11	-0.33
7.05	-4.38	-0.15
6.77	-3.87	-0.22
6.78	-4.93	-0.30
-2.16	-3.87	0.00
-2.00	-4.75	0.04
-2.03	-4.35	0.09
-2.11	-4.13	0.13
-2.20	-3.95	0.17
6.93	-4.33	-0.15
6.75	-3.89	-0.22
6.79	-4.97	-0.30
8.58	-3.10	-0.33
6.78	-4.27	-0.15
-2.13	-3.85	0.00
-2.07	-4.48	0.09
-2.09	-4.12	0.13
-2.21	-3.99	0.17
6.76	-3.92	-0.22
6.75	-4.97	-0.30
8.58	-3.07	-0.33
6.76	-4.29	-0.15
6.76	-3.95	-0.22
6.77	-5.02	-0.30
-3.86	31.32	0.57
-2.12	-3.86	0.00
-2.01	-4.86	0.05
-2.09	-4.15	0.13
-2.19	-3.98	0.17
-3.77	31.34	0.57
6.74	-4.30	-0.15
6.76	-3.97	-0.22
6.78	-5.06	-0.30
8.61	-3.05	-0.33
-3.67	31.35	0.57
-2.11	-3.87	0.00
-2.00	-4.85	0.05
-2.03	-4.47	0.09
-2.08	-4.17	0.13
-2.20	-4.04	0.17
6.74	-4.33	-0.15
6.77	-4.01	-0.22
6.77	-5.08	-0.30
8.62	-3.02	-0.33
-3.57	31.34	0.57
-2.09	-3.86	0.00
-1.99	-4.89	0.05
-2.03	-4.52	0.09
-2.07	-4.18	0.13
-2.21	-4.09	0.17
-3.45	31.13	0.57
6.71	-4.34	-0.15
6.74	-4.02	-0.22
6.76	-5.11	-0.30
6.68	-4.35	-0.15
6.77	-4.07	-0.22
6.76	-5.14	-0.31
8.63	-3.00	-0.33
-3.35	31.08	0.56
-2.06	-3.83	0.00
-2.01	-4.51	0.09
-2.06	-4.18	0.13
-2.17	-4.04	0.17
-3.26	31.09	0.56
6.81	-4.12	-0.22
6.76	-5.17	-0.31
14.69	-5.05	-0.56
-3.16	31.07	0.56
-2.08	-3.89	0.00
-2.00	-4.99	0.05
-2.10	-4.73	0.09
-2.05	-4.21	0.13
-2.20	-4.12	0.17
6.83	-4.16	-0.22
6.76	-5.21	-0.31
7.09	-4.35	-0.23
6.76	-5.24	-0.31
14.70	-5.01	-0.56
7.08	-4.37	-0.23
6.75	-5.27	-0.31
-2.09	-3.95	0.00
-1.98	-4.99	0.05
-2.04	-4.63	0.09
-2.09	-4.31	0.13
-2.20	-4.16	0.17
-2.96	31.02	0.56
7.03	-4.37	-0.23
6.75	-5.30	-0.31
14.72	-4.96	-0.56
7.01	-4.39	-0.23
6.73	-5.32	-0.31
6.97	-4.40	-0.23
6.73	-5.35	-0.31
-2.88	31.21	0.57
-2.08	-3.95	0.00
-1.97	-5.02	0.05
-2.03	-4.65	0.09
-2.02	-4.22	0.13
-2.17	-4.13	0.17
14.77	-4.93	-0.56
6.82	-4.33	-0.23
-2.78	31.20	0.57
6.74	-5.39	-0.31
6.76	-4.32	-0.22
6.74	-5.43	-0.31
14.75	-4.87	-0.56
-2.10	-4.02	0.00
-1.98	-5.08	0.05
-0.08	6.21	0.23
-2.69	31.25	0.57
-2.05	-4.74	0.09
-2.02	-4.25	0.13
-2.16	-4.14	0.17
6.78	-4.36	-0.22
6.74	-5.46	-0.31
6.74	-4.37	-0.22
6.73	-5.49	-0.31
14.79	-4.83	-0.56
-0.06	5.69	0.21
-2.61	31.38	0.57
-2.04	-3.94	0.00
-2.05	-4.79	0.09
-2.08	-4.41	0.13
-2.16	-4.18	0.17
-0.04	5.66	0.21
-2.51	31.38	0.57
6.76	-4.41	-0.23
6.75	-5.54	-0.31
6.74	-5.56	-0.31
14.76	-4.77	-0.56
6.74	-5.60	-0.32
-2.41	31.37	0.57
-2.01	-3.92	0.00
-2.02	-4.76	0.09
-2.09	-4.46	0.14
-2.15	-4.19	0.17
14.76	-4.72	-0.56
6.75	-4.49	-0.23
6.73	-5.62	-0.32
6.77	-4.53	-0.23
6.74	-5.67	-0.32
-0.01	5.57	0.21
14.76	-4.67	-0.56
-2.03	-3.97	0.00
-1.95	-5.13	0.05
-2.02	-4.78	0.09
-2.04	-4.38	0.13
0.01	5.55	0.21
6.80	-4.95	-0.15
6.76	-4.55	-0.23
6.72	-5.69	-0.32
6.75	-4.58	-0.23
14.78	-4.63	-0.56
6.71	-5.72	-0.32
0.03	5.57	0.21
-2.03	-4.00	0.00
-2.00	-4.79	0.09
-1.99	-4.32	0.13
6.75	-4.61	-0.23
6.73	-5.77	-0.32
14.79	-4.58	-0.56
0.05	5.55	0.21
6.73	-4.63	-0.23
6.71	-5.79	-0.32
6.73	-4.66	-0.23
6.76	-5.86	-0.32
-2.03	-4.04	0.00
-2.02	-4.88	0.10
-2.06	-4.49	0.14
0.06	5.55	0.21
14.73	-4.52	-0.55
6.72	-4.68	-0.23
6.75	-5.89	-0.32
14.77	-4.48	-0.56
0.08	5.56	0.21
-2.03	-4.07	0.00
-1.98	-4.82	0.09
-2.04	-4.50	0.14
0.10	5.54	0.21
6.73	-4.72	-0.23
6.80	-5.97	-0.33
6.73	-4.75	-0.23
6.76	-5.98	-0.32
14.82	-4.44	-0.56
0.11	5.55	0.21
-3.25	62.27	1.13
-2.08	-4.20	0.00
-2.01	-4.94	0.10
-2.02	-4.48	0.14
6.73	-4.78	-0.23
6.75	-6.00	-0.32
14.86	-4.41	-0.56
6.74	-4.82	-0.23
0.13	5.57	0.21
-0.08	6.23	0.17
6.74	-6.03	-0.33
6.74	-4.85	-0.23
-2.05	-4.18	0.00
-1.99	-5.50	0.05
-2.03	-5.03	0.10
-2.03	-4.54	0.14
0.15	5.48	0.20
-0.05	5.62	0.16
6.75	-6.08	-0.33
14.88	-4.36	-0.56
6.72	-4.87	-0.23
6.74	-6.11	-0.33
15.00	-4.35	-0.56
0.17	5.55	0.21
-0.04	5.56	0.15
-1.33	30.96	0.56
-2.01	-4.13	0.00
-1.97	-5.51	0.05
-2.02	-5.05	0.10
6.78	-4.94	-0.23
6.72	-6.13	-0.33
0.18	5.48	0.20
-0.02	5.60	0.15
-1.24	30.97	0.56
15.94	-4.57	-0.60
6.77	-4.97	-0.23
6.73	-6.17	-0.33
0.20	5.50	0.20
-0.00	5.55	0.15
-1.14	30.94	0.56
-2.02	-4.18	0.00
-1.98	-5.57	0.05
-2.10	-4.78	0.14
6.80	-5.03	-0.24
6.72	-6.21	-0.33
16.21	-4.59	-0.61
0.21	5.43	0.20
0.01	5.54	0.15
-1.04	30.82	0.56
6.76	-5.02	-0.23
-1.97	-5.62	0.05
-2.00	-5.08	0.10
-2.09	-4.79	0.14
0.23	5.36	0.20
0.03	5.53	0.15
-0.95	30.80	0.56
6.71	-6.23	-0.33
16.21	-4.54	-0.61
6.73	-5.04	-0.23
6.70	-6.26	-0.33
0.24	5.36	0.20
-0.85	30.83	0.56
-1.95	-4.11	0.00
-1.96	-5.64	0.05
-2.05	-4.74	0.14
6.74	-5.08	-0.24
6.70	-6.30	-0.33
16.24	-4.49	-0.61
0.26	5.36	0.20
0.07	5.59	0.15
-0.76	30.85	0.56
6.80	-5.16	-0.24
6.73	-6.37	-0.33
0.27	5.36	0.20
0.08	5.59	0.15
-0.66	30.91	0.56
-1.98	-4.19	0.00
-1.91	-5.54	0.05
-1.97	-5.10	0.10
-2.03	-4.75	0.14
6.79	-5.18	-0.24
6.71	-6.38	-0.33
0.29	5.35	0.20
0.10	5.69	0.16
-0.57	30.87	0.56
-2.01	-4.28	0.00
-1.97	-5.79	0.05
-2.03	-5.30	0.10
-2.02	-4.77	0.14
0.31	5.34	0.20
0.12	5.66	0.16
-0.10	6.36	0.11
6.77	-5.19	-0.24
6.66	-6.38	-0.33
6.76	-5.22	-0.24
6.73	-6.48	-0.34
0.32	5.32	0.20
0.14	5.70	0.16
-0.08	6.25	0.11
-1.98	-4.26	0.00
-1.97	-5.83	0.05
-1.98	-5.23	0.10
-2.10	-4.98	0.15
0.34	5.33	0.20
0.15	5.62	0.16
6.74	-5.24	-0.24
6.71	-6.51	-0.34
6.74	-5.27	-0.24
6.70	-6.54	-0.34
0.35	5.29	0.20
0.17	5.70	0.16
-2.03	-4.40	0.00
-1.96	-5.87	0.05
-2.00	-5.32	0.10
0.37	5.28	0.20
0.19	5.70	0.16
6.74	-5.30	-0.24
6.72	-6.60	-0.34
6.73	-5.33	-0.24
6.70	-6.62	-0.34
0.39	5.29	0.20
0.20	5.51	0.15
-2.00	-4.37	0.00
-1.99	-4.82	0.14
0.40	5.22	0.19
0.21	5.40	0.15
0.02	5.48	0.10
6.71	-5.35	-0.24
6.69	-6.65	-0.34
0.42	5.25	0.20
0.23	5.42	0.15
0.03	5.41	0.10
-2.02	-4.45	0.00
6.74	-5.40	-0.24
6.71	-6.71	-0.34
6.72	-5.43	-0.24
6.68	-6.72	-0.34
0.43	5.28	0.20
0.24	5.33	0.15
0.05	5.57	0.10
-2.00	-4.45	0.00
0.45	5.29	0.20
0.26	5.34	0.15
0.07	5.48	0.10
6.70	-5.44	-0.24
6.72	-5.49	-0.24
6.71	-6.84	-0.34
0.47	5.30	0.20
0.28	5.36	0.15
0.09	5.56	0.10
-2.01	-4.49	0.00
-1.95	-6.07	0.06
-1.99	-5.50	0.11
0.48	5.30	0.20
0.29	5.33	0.15
0.10	5.58	0.10
6.69	-5.50	-0.24
6.69	-6.86	-0.34
0.50	5.31	0.20
0.31	5.31	0.15
0.12	5.57	0.10
-2.00	-4.53	0.00
-2.01	-6.35	0.06
-1.96	-5.47	0.10
-2.01	-5.03	0.15
0.52	5.30	0.20
0.32	5.30	0.15
0.14	5.59	0.10
6.60	-5.88	-0.16
6.74	-5.58	-0.24
6.65	-6.86	-0.34
6.73	-5.61	-0.24
-0.05	5.64	0.25
0.53	5.31	0.20
0.34	5.29	0.15
0.16	5.63	0.10
-1.97	-4.49	0.00
-1.96	-6.24	0.06
-2.00	-5.06	0.15
-0.03	5.61	0.25
0.55	5.30	0.20
0.36	5.29	0.15
0.17	5.63	0.10
6.73	-5.64	-0.25
6.98	-7.29	-0.36
0.57	5.31	0.20
0.37	5.28	0.15
0.19	5.63	0.10
-2.00	-4.60	0.00
-2.02	-5.16	0.15
0.58	5.30	0.20
0.39	5.28	0.15
0.20	5.44	0.10
6.72	-5.67	-0.25
0.60	5.30	0.20
0.40	5.28	0.15
0.22	5.50	0.10
-2.00	-4.63	0.00
-1.92	-6.24	0.06
-2.01	-5.16	0.15
0.61	5.29	0.20
0.42	5.28	0.15
0.23	5.42	0.10
6.67	-5.66	-0.24
0.63	5.31	0.20
0.44	5.28	0.15
-2.01	-4.70	0.00
-1.98	-5.75	0.11
-1.98	-5.15	0.15
6.72	-5.74	-0.25
0.65	5.32	0.20
0.45	5.28	0.15
0.67	5.31	0.20
0.47	5.28	0.15
-2.04	-4.81	0.00
-1.99	-6.61	0.06
-1.93	-5.65	0.11
-2.00	-5.25	0.15
6.70	-5.75	-0.25
0.68	5.30	0.20
0.49	5.28	0.15
6.66	-5.76	-0.25
0.70	5.29	0.20
0.50	5.28	0.15
0.34	5.75	0.10
-2.01	-4.77	0.00
-1.99	-6.68	0.06
0.71	5.29	0.20
0.52	5.29	0.15
0.36	5.82	0.11
0.14	5.40	0.05
6.75	-5.87	-0.25
6.71	-5.88	-0.25
0.73	5.29	0.20
0.53	5.28	0.15
0.34	5.31	0.10
0.15	5.32	0.05
-2.00	-4.79	0.00
-1.97	-6.70	0.06
-2.02	-6.07	0.12
0.75	5.28	0.20
0.55	5.28	0.15
0.36	5.28	0.10
0.17	5.30	0.05
6.71	-5.91	-0.25
0.76	5.28	0.20
0.57	5.28	0.15
0.38	5.33	0.10
0.19	5.50	0.05
-2.01	-4.85	0.00
-1.94	-6.66	0.06
-2.04	-6.17	0.12
0.78	5.27	0.20
0.58	5.29	0.15
0.39	5.30	0.10
0.20	5.36	0.05
6.67	-5.91	-0.25
0.22	5.40	0.24
0.79	5.25	0.20
0.60	5.29	0.15
0.41	5.31	0.10
0.21	5.27	0.05
-2.01	-4.90	0.00
-1.95	-6.80	0.06
-1.94	-5.95	0.11
0.23	5.36	0.24
0.81	5.24	0.20
0.62	5.29	0.15
0.43	5.33	0.10
0.23	5.39	0.05
6.73	-6.00	-0.25
0.81	5.17	0.19
0.63	5.29	0.15
0.44	5.33	0.10
0.25	5.35	0.05
-2.00	-4.93	0.00
-1.97	-6.94	0.06
-1.91	-5.90	0.11
0.83	5.18	0.20
0.65	5.28	0.15
0.46	5.34	0.10
0.26	5.34	0.05
-1.98	-4.91	0.00
-1.97	-7.02	0.06
0.85	5.19	0.20
0.66	5.27	0.15
0.48	5.35	0.10
0.28	5.24	0.05
-1.98	-6.19	0.12
0.87	5.20	0.20
0.68	5.26	0.15
0.50	5.44	0.10
0.29	5.17	0.04
-1.99	-4.98	0.00
-1.98	-7.14	0.06
0.88	5.21	0.20
0.69	5.25	0.15
0.52	5.46	0.10
0.31	5.29	0.05
0.90	5.20	0.20
0.71	5.25	0.15
0.54	5.46	0.10
0.33	5.25	0.05
-1.97	-5.56	-0.05
-1.97	-4.99	0.00
-1.95	-7.13	0.06
-1.99	-6.35	0.12
0.91	5.20	0.20
0.73	5.26	0.15
0.55	5.46	0.10
0.34	5.19	0.05
0.93	5.20	0.20
0.74	5.25	0.15
0.57	5.47	0.10
0.36	5.22	0.05
-1.99	-5.67	-0.05
-1.98	-5.06	0.00
-1.93	-7.15	0.06
-1.98	-6.38	0.12
0.94	5.19	0.20
0.76	5.25	0.15
0.59	5.47	0.10
0.37	5.23	0.05
6.76	-6.22	-0.26
0.96	5.18	0.20
0.78	5.25	0.15
0.61	5.46	0.10
0.39	5.20	0.05
-1.97	-5.68	-0.05
-1.96	-5.05	0.00
-2.01	-7.52	0.07
-1.96	-6.38	0.12
0.98	5.21	0.20
0.79	5.25	0.15
0.62	5.45	0.10
0.41	5.25	0.05
1.00	5.20	0.20
0.81	5.23	0.15
0.64	5.46	0.10
0.42	5.26	0.05
-1.95	-5.67	-0.05
-1.96	-5.09	0.00
-2.02	-7.64	0.07
-2.00	-6.58	0.12
1.01	5.20	0.20
0.82	5.21	0.15
0.65	5.44	0.10
0.44	5.31	0.05
1.03	5.20	0.20
0.84	5.21	0.15
0.67	5.45	0.10
0.47	5.38	0.05
-1.96	-5.75	-0.05
-2.01	-5.26	0.00
-2.01	-7.70	0.07
-1.97	-6.56	0.12
1.05	5.22	0.20
0.85	5.21	0.15
0.69	5.44	0.10
0.49	5.42	0.05
1.07	5.23	0.20
0.87	5.22	0.15
0.71	5.44	0.10
0.50	5.44	0.05
-1.95	-5.79	-0.05
-2.00	-5.29	0.00
-0.94	-3.67	0.03
-1.98	-6.66	0.13
1.09	5.23	0.20
0.89	5.22	0.15
0.73	5.47	0.10
0.52	5.47	0.05
1.10	5.24	0.20
0.90	5.21	0.15
0.74	5.48	0.10
0.54	5.46	0.05
6.63	-6.25	-0.25
-2.03	-5.41	0.00
-0.93	-3.66	0.03
-1.97	-6.72	0.13
1.12	5.24	0.20
0.92	5.21	0.15
0.76	5.46	0.10
0.56	5.45	0.05
1.14	5.24	0.20
0.94	5.22	0.15
0.78	5.47	0.10
0.57	5.46	0.05
-1.96	-5.29	0.00
-0.92	-3.66	0.03
1.15	5.23	0.20
0.95	5.22	0.15
0.80	5.48	0.10
0.59	5.45	0.05
1.17	5.23	0.20
0.97	5.21	0.15
0.81	5.47	0.10
0.61	5.45	0.05
-1.95	-5.31	0.00
-0.91	-3.66	0.03
-2.00	-6.96	0.13
1.18	5.22	0.20
0.98	5.21	0.15
0.83	5.46	0.10
0.62	5.45	0.05
6.76	-6.93	-0.18
1.20	5.22	0.20
1.00	5.20	0.15
0.84	5.45	0.10
0.64	5.46	0.05
-2.00	-5.49	0.00
-0.89	-3.65	0.03
1.21	5.20	0.20
1.01	5.19	0.15
0.86	5.44	0.10
0.66	5.46	0.05
6.72	-6.93	-0.18
1.23	5.22	0.20
1.03	5.19	0.15
0.87	5.41	0.10
0.67	5.43	0.05
-1.98	-5.50	0.00
-0.88	-3.63	0.03
1.25	5.21	0.20
1.05	5.19	0.15
0.88	5.38	0.10
0.69	5.41	0.05
6.70	-6.96	-0.18
1.26	5.21	0.20
1.07	5.20	0.15
0.89	5.33	0.10
0.71	5.47	0.05
-1.97	-5.52	0.00
-0.87	-3.65	0.03
1.28	5.20	0.20
1.08	5.19	0.15
0.90	5.26	0.10
0.73	5.49	0.05
6.69	-6.99	-0.18
1.30	5.21	0.20
1.10	5.19	0.15
0.91	5.26	0.10
0.75	5.48	0.05
-1.95	-6.22	-0.06
-1.96	-5.55	0.00
1.32	5.21	0.20
1.11	5.18	0.15
0.93	5.26	0.10
0.76	5.46	0.05
6.68	-7.02	-0.18
1.33	5.21	0.20
1.13	5.19	0.15
0.95	5.31	0.10
0.78	5.47	0.05
-1.93	-6.22	-0.06
-1.97	-5.62	0.00
-0.83	-3.58	0.03
1.35	5.20	0.20
1.15	5.21	0.15
0.98	5.36	0.10
0.79	5.45	0.05
1.36	5.17	0.20
1.17	5.21	0.15
0.99	5.34	0.10
0.81	5.46	0.05
6.91	-7.31	-0.18
-2.00	-6.54	-0.06
-1.96	-5.65	0.00
-0.80	-3.51	0.03
1.38	5.19	0.20
1.18	5.20	0.15
1.01	5.33	0.10
0.83	5.46	0.05
7.05	-7.50	-0.19
1.41	5.24	0.20
1.20	5.19	0.15
1.02	5.32	0.10
0.85	5.49	0.05
-1.97	-6.49	-0.06
-1.99	-5.80	0.00
-0.79	-3.50	0.03
1.42	5.21	0.20
1.21	5.19	0.15
1.04	5.31	0.10
0.87	5.47	0.05
1.41	5.17	0.00
7.01	-7.50	-0.19
1.46	5.30	0.20
1.24	5.23	0.15
1.06	5.31	0.10
0.88	5.47	0.05
1.43	5.19	0.00
-1.96	-6.53	-0.06
-2.00	-5.88	0.00
-0.75	-3.39	0.03
1.25	5.21	0.15
1.07	5.30	0.10
0.89	5.43	0.05
1.45	5.18	0.00
1.27	5.23	0.15
1.09	5.30	0.10
0.90	5.38	0.05
1.47	5.19	0.00
-1.94	-6.56	-0.06
-1.96	-5.83	0.00
-0.74	-3.39	0.03
-0.94	-3.64	0.07
1.28	5.19	0.15
1.10	5.29	0.10
0.92	5.36	0.05
1.49	5.22	0.00
7.04	-7.58	-0.19
1.30	5.19	0.15
1.11	5.26	0.10
0.93	5.36	0.05
1.52	5.24	0.00
-1.95	-6.67	-0.06
-1.96	-5.87	0.00
-0.73	-3.39	0.03
1.32	5.19	0.15
1.13	5.25	0.10
0.95	5.35	0.05
1.54	5.25	0.00
-0.93	-3.65	0.07
1.33	5.19	0.15
1.14	5.24	0.10
0.99	5.47	0.05
1.51	5.11	0.00
7.01	-7.60	-0.19
-1.97	-6.80	-0.06
-1.95	-5.92	0.00
-0.72	-3.39	0.03
1.36	5.23	0.15
1.16	5.24	0.10
1.01	5.49	0.05
1.57	5.23	0.00
-0.92	-3.66	0.07
1.38	5.24	0.15
1.18	5.25	0.10
1.02	5.49	0.05
1.56	5.17	0.00
1.40	5.27	0.15
1.20	5.26	0.10
1.04	5.48	0.05
-1.97	-6.88	-0.06
-1.95	-5.96	0.00
-0.71	-3.37	0.03
-0.90	-3.66	0.07
5.69	-6.21	-0.15
7.55	-0.12	-0.21
1.42	5.26	0.15
1.21	5.23	0.10
1.06	5.47	0.05
1.44	5.28	0.15
1.23	5.24	0.10
1.07	5.48	0.05
-1.94	-6.85	-0.06
-1.95	-6.05	0.00
-0.69	-3.36	0.03
-0.89	-3.65	0.07
7.63	-0.10	-0.21
1.45	5.26	0.15
1.24	5.23	0.10
1.09	5.47	0.05
1.66	5.25	0.00
1.48	5.30	0.15
1.26	5.23	0.10
1.11	5.46	0.05
1.73	5.41	0.00
-1.96	-7.02	-0.07
-1.98	-6.20	0.00
-0.68	-3.34	0.03
-0.88	-3.65	0.07
6.97	-7.64	-0.19
6.57	-6.71	-0.26
1.50	5.31	0.15
1.28	5.23	0.10
1.12	5.46	0.05
7.65	-0.08	-0.21
1.52	5.33	0.15
1.30	5.24	0.10
1.14	5.46	0.05
1.71	5.25	0.00
-1.93	-6.97	-0.06
-1.99	-6.29	0.00
-0.67	-3.34	0.03
-0.87	-3.65	0.07
1.55	5.34	0.15
1.31	5.24	0.10
1.16	5.45	0.05
6.93	-7.65	-0.19
6.72	-6.90	-0.27
7.65	-0.06	-0.21
1.57	5.34	0.15
1.33	5.25	0.10
1.18	5.46	0.05
1.80	5.40	0.00
-1.96	-7.17	-0.07
-1.98	-6.34	0.00
-0.66	-3.35	0.03
1.58	5.34	0.15
1.35	5.25	0.10
1.19	5.42	0.05
1.64	5.46	0.16
1.36	5.24	0.10
1.21	5.46	0.05
-1.91	-7.08	-0.07
-1.96	-6.33	0.00
-0.65	-3.39	0.03
-0.82	-3.53	0.07
7.66	-0.03	-0.21
1.63	5.38	0.16
1.38	5.25	0.10
1.22	5.43	0.05
6.91	-7.67	-0.19
6.67	-6.89	-0.27
1.69	5.51	0.16
1.40	5.26	0.10
1.24	5.41	0.05
-1.95	-7.33	-0.07
-1.91	-6.25	0.00
-0.63	-3.34	0.03
-0.80	-3.51	0.07
1.74	5.62	0.16
1.43	5.28	0.10
1.24	5.36	0.05
4.03	11.50	0.01
7.66	-0.01	-0.21
1.76	5.62	0.16
1.44	5.27	0.10
1.25	5.34	0.05
4.07	11.49	0.01
-1.97	-7.48	-0.07
-1.96	-6.47	0.00
-0.62	-3.34	0.03
-0.79	-3.51	0.06
1.79	5.64	0.16
1.45	5.24	0.10
1.27	5.33	0.05
4.10	11.49	0.01
5.56	-6.21	-0.15
6.63	-6.90	-0.27
7.66	0.02	-0.21
1.80	5.63	0.16
1.49	5.30	0.10
1.28	5.30	0.05
4.14	11.47	0.01
-0.95	-3.64	-0.03
-1.99	-6.66	0.00
-0.61	-3.34	0.03
-0.77	-3.49	0.06
1.81	5.61	0.16
1.49	5.28	0.10
1.28	5.25	0.05
4.18	11.49	0.01
7.65	0.04	-0.21
1.83	5.60	0.16
1.51	5.27	0.10
1.31	5.29	0.05
4.23	11.51	0.01
-0.93	-3.63	-0.03
-1.97	-6.67	0.00
-0.61	-3.40	0.03
-0.75	-3.42	0.06
-0.96	-3.73	0.11
1.84	5.57	0.16
1.54	5.31	0.10
1.31	5.24	0.05
4.27	11.52	0.01
5.55	-6.25	-0.15
6.83	-7.14	-0.28
1.85	5.55	0.16
1.57	5.34	0.10
1.33	5.23	0.05
4.31	11.51	0.01
-0.92	-3.64	-0.03
-1.94	-6.64	0.00
-0.59	-3.36	0.03
-0.73	-3.40	0.06
-0.94	-3.71	0.11
1.59	5.35	0.10
1.35	5.23	0.05
4.35	11.50	0.01
1.62	5.39	0.10
1.36	5.22	0.05
4.39	11.49	0.01
-0.91	-3.64	-0.03
-1.93	-6.66	0.00
-0.58	-3.34	0.03
-0.71	-3.37	0.06
-0.93	-3.72	0.11
1.64	5.41	0.10
1.38	5.23	0.05
4.42	11.48	0.01
5.54	-6.27	-0.15
6.99	-7.35	-0.28
7.62	0.09	-0.21
1.66	5.41	0.10
1.40	5.23	0.05
4.40	11.31	0.01
-0.90	-3.63	-0.03
-1.94	-6.79	0.00
-0.58	-3.39	0.03
-0.70	-3.36	0.06
-0.91	-3.70	0.11
1.68	5.43	0.10
1.41	5.22	0.05
4.43	11.29	0.01
7.67	0.11	-0.21
1.70	5.42	0.10
1.43	5.21	0.05
4.49	11.34	0.01
-0.89	-3.64	-0.03
-1.91	-6.77	0.00
-0.56	-3.36	0.03
-0.69	-3.35	0.06
-0.90	-3.71	0.11
1.76	5.55	0.11
1.45	5.23	0.05
4.51	11.30	0.01
5.52	-6.29	-0.15
6.97	-7.39	-0.28
1.76	5.50	0.10
1.47	5.26	0.05
4.56	11.32	0.01
-0.87	-3.61	-0.03
-1.96	-7.00	0.00
-0.55	-3.35	0.03
-0.67	-3.34	0.06
-0.88	-3.64	0.10
1.78	5.51	0.10
1.48	5.22	0.05
4.59	11.29	0.01
7.68	0.13	-0.21
1.79	5.48	0.10
1.52	5.30	0.05
4.65	11.34	0.01
-0.85	-3.60	-0.03
-1.92	-6.95	0.00
-0.54	-3.35	0.03
1.52	5.23	0.05
4.66	11.27	0.01
5.50	-6.30	-0.15
7.02	-7.48	-0.29
1.78	5.34	0.10
4.76	11.42	0.01
-1.94	-7.10	0.01
-0.53	-3.34	0.03
7.68	0.16	-0.21
7.60	-0.12	-0.14
4.83	11.47	0.01
-0.79	-3.43	-0.03
-1.94	-7.20	0.01
-0.80	-3.49	0.10
4.86	11.46	0.01
1.61	5.31	0.05
4.93	11.53	0.01
-0.79	-3.45	-0.03
-2.01	-7.54	0.01
-0.51	-3.36	0.03
-0.65	-3.45	0.06
-0.79	-3.49	0.10
7.68	0.18	-0.21
7.62	-0.10	-0.14
1.64	5.34	0.05
-0.61	-3.28	-0.06
-0.77	-3.43	-0.03
-2.01	-7.63	0.01
1.68	5.42	0.05
5.48	-6.32	-0.15
6.92	-7.42	-0.28
1.72	5.47	0.05
-0.60	-3.26	-0.06
-0.76	-3.44	-0.03
-0.95	-3.67	0.00
-0.49	-3.38	0.03
-0.62	-3.40	0.06
-0.77	-3.47	0.10
7.67	0.20	-0.21
7.62	-0.07	-0.14
1.76	5.54	0.05
-0.59	-3.25	-0.06
-0.73	-3.37	-0.03
-0.94	-3.66	0.00
-0.48	-3.38	0.03
1.77	5.52	0.05
-0.61	-3.37	0.06
-0.76	-3.48	0.10
-0.96	-3.74	0.14
1.79	5.53	0.05
-0.56	-3.17	-0.06
-0.72	-3.37	-0.03
-0.93	-3.66	0.00
5.46	-6.33	-0.15
1.80	5.50	0.05
6.71	-7.24	-0.28
7.65	0.23	-0.21
7.62	-0.05	-0.14
3.75	11.33	0.10
-0.55	-3.16	-0.06
-0.71	-3.36	-0.03
-0.91	-3.66	0.00
-0.46	-3.37	0.03
-0.59	-3.38	0.06
-0.71	-3.35	0.09
-0.93	-3.73	0.14
3.81	11.41	0.10
-0.54	-3.17	-0.06
3.86	11.42	0.10
7.62	-0.03	-0.14
-0.54	-3.19	-0.06
3.89	11.41	0.10
-0.69	-3.35	0.09
3.93	11.40	0.10
-0.53	-3.23	-0.06
-0.67	-3.33	-0.03
-0.87	-3.63	0.00
-0.43	-3.36	0.03
5.44	-6.35	-0.15
6.69	-7.26	-0.28
3.96	11.37	0.10
-0.52	-3.23	-0.06
-0.66	-3.33	-0.03
-0.42	-3.36	0.03
-0.54	-3.37	0.06
3.99	11.37	0.10
7.63	-0.00	-0.14
4.03	11.34	0.10
5.99	12.39	0.01
-0.51	-3.23	-0.06
-0.65	-3.33	-0.03
-0.41	-3.36	0.03
4.06	11.34	0.10
5.95	12.20	0.01
-0.51	-3.26	-0.06
-0.64	-3.33	-0.03
-0.81	-3.53	0.00
-0.39	-3.36	0.03
-0.53	-3.45	0.06
-0.66	-3.42	0.10
-0.80	-3.49	0.13
4.10	11.34	0.10
5.94	12.08	0.01
7.64	0.02	-0.14
4.13	11.32	0.10
5.94	11.99	0.01
-0.50	-3.26	-0.06
-0.63	-3.34	-0.03
-0.79	-3.49	0.00
-0.38	-3.35	0.03
-0.52	-3.46	0.06
-0.65	-3.44	0.10
-0.79	-3.50	0.13
4.17	11.30	0.10
5.97	11.97	0.01
-0.49	-3.27	-0.06
4.21	11.32	0.10
6.01	11.96	0.01
-0.62	-3.34	-0.03
-0.77	-3.44	0.00
-0.37	-3.35	0.03
-0.51	-3.44	0.06
-0.64	-3.45	0.10
-0.78	-3.50	0.13
5.42	-6.36	-0.15
6.12	-6.68	-0.25
4.25	11.32	0.10
6.02	11.89	0.01
-0.48	-3.27	-0.06
-0.61	-3.33	-0.03
-0.76	-3.42	0.00
-0.36	-3.35	0.03
-0.50	-3.46	0.06
-0.63	-3.45	0.10
-0.77	-3.49	0.13
4.30	11.34	0.11
6.04	11.84	0.01
7.64	0.04	-0.14
4.35	11.37	0.11
6.00	11.67	0.01
-0.47	-3.29	-0.06
-0.60	-3.34	-0.03
-0.73	-3.36	0.00
-0.35	-3.35	0.03
-0.49	-3.47	0.06
-0.62	-3.48	0.10
-0.76	-3.49	0.13
4.39	11.35	0.11
6.02	11.63	0.01
4.41	11.32	0.11
-0.46	-3.28	-0.06
-0.59	-3.35	-0.03
-0.73	-3.41	0.00
-0.34	-3.32	0.03
-0.48	-3.47	0.06
-0.59	-3.37	0.09
-0.74	-3.47	0.13
4.45	11.30	0.11
5.40	-6.38	-0.15
5.86	-6.44	-0.24
-0.44	-3.27	-0.06
-0.58	-3.35	-0.03
-0.72	-3.40	0.00
-0.33	-3.35	0.03
-0.47	-3.43	0.06
-0.58	-3.36	0.09
-0.73	-3.46	0.13
4.48	11.30	0.11
4.54	11.33	0.11
6.03	11.30	0.01
-0.43	-3.26	-0.06
-0.57	-3.34	-0.03
-0.69	-3.33	0.00
-0.30	-3.15	0.03
-0.46	-3.45	0.06
-0.57	-3.35	0.09
-0.72	-3.46	0.13
4.57	11.32	0.11
7.61	0.07	-0.14
4.61	11.32	0.11
-0.42	-3.27	-0.06
-0.56	-3.34	-0.03
-0.68	-3.34	0.00
-0.28	-3.07	0.03
-0.45	-3.44	0.06
-0.56	-3.36	0.09
-0.71	-3.46	0.13
4.71	11.47	0.11
6.14	11.25	0.01
-0.42	-3.30	-0.06
6.17	11.23	0.01
-0.54	-3.32	-0.03
-0.67	-3.33	0.00
-0.27	-3.04	0.03
-0.44	-3.44	0.06
-0.55	-3.35	0.09
-0.70	-3.47	0.13
-0.40	-3.27	-0.06
-0.53	-3.30	-0.03
-0.66	-3.35	0.00
-0.26	-3.04	0.03
-0.42	-3.44	0.06
4.87	11.53	0.11
6.23	11.17	0.01
7.63	0.09	-0.14
4.91	11.54	0.11
6.26	11.15	0.01
-0.39	-3.25	-0.06
-0.52	-3.31	-0.03
-0.65	-3.35	0.00
-0.25	-3.05	0.03
-0.41	-3.44	0.06
4.94	11.52	0.11
6.28	11.10	0.01
5.31	-6.31	-0.15
6.34	-7.01	-0.26
-0.38	-3.25	-0.06
-0.51	-3.30	-0.03
-0.64	-3.35	0.00
-0.24	-3.04	0.03
-0.40	-3.45	0.06
-0.53	-3.41	0.10
-0.66	-3.46	0.13
6.29	11.03	0.01
6.33	11.03	0.01
-0.37	-3.26	-0.06
-0.51	-3.36	-0.03
-0.63	-3.35	0.00
-0.24	-3.04	0.03
-0.39	-3.44	0.06
-0.51	-3.39	0.09
-0.65	-3.46	0.13
6.40	11.07	0.01
7.62	0.11	-0.14
-0.37	-3.31	-0.06
-0.49	-3.32	-0.03
-0.62	-3.34	0.00
-0.23	-3.04	0.03
-0.38	-3.43	0.06
-0.51	-3.44	0.10
-0.64	-3.46	0.13
6.59	11.25	0.01
-0.36	-3.32	-0.06
-0.48	-3.34	-0.03
-0.61	-3.34	0.00
-0.22	-3.02	0.03
-0.37	-3.44	0.06
-0.50	-3.48	0.10
-0.63	-3.46	0.13
6.64	11.24	0.01
5.31	-6.36	-0.15
6.66	11.21	0.01
-0.36	-3.39	-0.06
-0.48	-3.38	-0.03
-0.60	-3.33	0.00
-0.21	-3.02	0.03
-0.32	-3.06	0.06
-0.49	-3.43	0.10
-0.62	-3.45	0.13
6.72	11.23	0.01
6.27	-6.98	-0.26
-0.34	-3.38	-0.06
6.80	11.28	0.01
-0.47	-3.37	-0.03
-0.59	-3.34	0.00
-0.20	-3.03	0.03
-0.31	-3.04	0.06
-0.47	-3.42	0.10
-0.61	-3.46	0.13
7.63	0.14	-0.14
6.83	11.24	0.01
-0.33	-3.37	-0.06
-0.46	-3.39	-0.03
-0.58	-3.36	0.00
-0.19	-3.05	0.03
-0.30	-3.03	0.06
-0.47	-3.44	0.10
-0.59	-3.39	0.13
6.86	11.23	0.01
6.90	11.21	0.01
-0.32	-3.39	-0.06
-0.45	-3.37	-0.03
-0.57	-3.36	0.00
-0.18	-3.04	0.03
-0.29	-3.04	0.06
-0.46	-3.44	0.10
-0.58	-3.44	0.13
6.91	11.16	0.01
-0.31	-3.37	-0.06
-0.44	-3.37	-0.03
6.98	11.18	0.01
-0.56	-3.35	0.00
-0.17	-3.04	0.03
-0.28	-3.03	0.06
-0.44	-3.43	0.10
-0.56	-3.38	0.13
5.97	12.32	0.12
7.06	11.24	0.01
-0.30	-3.38	-0.06
-0.42	-3.36	-0.03
-0.55	-3.36	0.00
-0.16	-3.05	0.03
-0.27	-3.03	0.06
-0.43	-3.44	0.10
-0.55	-3.37	0.13
5.93	12.13	0.12
7.10	11.23	0.01
7.64	0.16	-0.14
5.93	12.03	0.12
7.15	11.24	0.01
-0.29	-3.39	-0.06
-0.41	-3.35	-0.03
-0.54	-3.35	0.00
-0.15	-3.03	0.03
-0.26	-3.02	0.05
-0.42	-3.45	0.10
-0.54	-3.37	0.13
5.94	11.96	0.12
7.21	11.25	0.01
5.99	11.97	0.12
7.29	11.30	0.01
-0.28	-3.39	-0.06
-0.40	-3.35	-0.03
-0.53	-3.35	0.00
-0.14	-3.03	0.03
-0.25	-3.02	0.05
-0.41	-3.44	0.10
-0.53	-3.37	0.13
6.01	11.92	0.12
7.30	11.24	0.01
-0.27	-3.39	-0.06
-0.39	-3.36	-0.03
-0.52	-3.35	0.00
-0.13	-3.02	0.03
-0.24	-3.02	0.05
-0.40	-3.45	0.10
-0.52	-3.38	0.13
6.03	11.88	0.12
7.27	11.11	0.01
5.33	-6.41	-0.15
5.57	-6.24	-0.23
6.03	11.78	0.11
7.33	11.13	0.01
-0.26	-3.36	-0.06
-0.39	-3.43	-0.03
-0.50	-3.35	0.00
-0.12	-3.02	0.03
-0.23	-3.03	0.05
-0.35	-3.06	0.08
-0.51	-3.40	0.13
6.08	11.79	0.12
-0.25	-3.39	-0.06
-0.38	-3.44	-0.03
-0.50	-3.35	0.00
-0.11	-3.02	0.03
-0.22	-3.03	0.05
-0.34	-3.04	0.08
-0.50	-3.40	0.13
7.64	0.18	-0.14
-0.24	-3.40	-0.06
-0.37	-3.44	-0.03
-0.49	-3.36	0.00
-0.10	-3.02	0.03
-0.21	-3.03	0.05
-0.32	-3.02	0.08
-0.50	-3.44	0.13
-0.23	-3.38	-0.06
-0.36	-3.44	-0.03
-0.48	-3.37	0.00
-0.09	-3.02	0.03
-0.20	-3.02	0.05
-0.32	-3.02	0.08
-0.49	-3.44	0.13
6.05	11.23	0.11
8.86	12.85	0.01
-0.22	-3.38	-0.06
-0.35	-3.44	-0.03
-0.47	-3.37	0.00
-0.09	-3.03	0.03
-0.20	-3.02	0.05
-0.30	-3.00	0.08
-0.47	-3.42	0.13
6.12	11.27	0.11
8.74	12.58	0.01
-0.21	-3.38	-0.06
-0.34	-3.42	-0.03
-0.46	-3.37	0.00
-0.08	-3.03	0.03
-0.19	-3.03	0.05
-0.30	-3.03	0.08
-0.47	-3.46	0.13
6.08	11.12	0.11
8.75	12.52	0.01
7.65	0.21	-0.14
6.17	11.19	0.11
8.70	12.37	0.01
-0.20	-3.38	-0.06
-0.33	-3.42	-0.03
-0.44	-3.35	0.00
-0.07	-3.04	0.03
-0.18	-3.04	0.06
-0.29	-3.04	0.08
-0.46	-3.46	0.13
6.23	11.22	0.11
8.58	12.12	0.01
-0.19	-3.38	-0.06
-0.31	-3.40	-0.03
-0.43	-3.36	0.00
-0.06	-3.05	0.03
-0.17	-3.03	0.05
6.27	11.22	0.11
8.60	12.07	0.01
-0.28	-3.03	0.08
-0.45	-3.46	0.13
6.28	11.15	0.11
8.66	12.07	0.01
5.31	-6.43	-0.15
-0.18	-3.37	-0.06
-0.30	-3.41	-0.03
-0.42	-3.36	0.00
-0.05	-3.05	0.03
-0.16	-3.04	0.06
-0.27	-3.03	0.08
-0.43	-3.45	0.13
6.29	11.09	0.11
8.70	12.04	0.01
5.56	-6.27	-0.23
6.31	11.04	0.11
8.72	12.01	0.01
-0.17	-3.36	-0.06
-0.29	-3.42	-0.03
-0.41	-3.36	0.00
-0.04	-3.04	0.03
-0.15	-3.02	0.05
-0.26	-3.02	0.08
-0.42	-3.46	0.13
6.38	11.09	0.11
8.69	11.88	0.01
-0.15	-3.16	-0.06
-0.28	-3.42	-0.03
-0.40	-3.37	0.00
-0.03	-3.05	0.03
-0.14	-3.03	0.05
-0.25	-3.02	0.08
6.41	11.07	0.11
8.70	11.82	0.01
-0.36	-3.04	0.11
7.62	0.23	-0.14
6.44	11.03	0.11
8.73	11.79	0.01
-0.14	-3.12	-0.06
-0.27	-3.44	-0.03
-0.39	-3.36	0.00
-0.02	-3.04	0.03
-0.13	-3.03	0.05
-0.24	-3.03	0.08
-0.35	-3.03	0.11
6.42	10.92	0.11
8.77	11.76	0.01
8.80	11.73	0.01
-0.13	-3.11	-0.06
-0.26	-3.45	-0.03
-0.38	-3.36	0.00
-0.01	-3.04	0.03
-0.12	-3.02	0.05
-0.23	-3.03	0.08
-0.34	-3.03	0.11
8.61	11.40	0.01
-0.11	-3.08	-0.06
-0.25	-3.47	-0.03
-0.37	-3.36	0.00
-0.00	-3.02	0.03
-0.11	-3.01	0.05
-0.22	-3.02	0.08
-0.33	-3.03	0.11
8.61	11.33	0.01
5.29	-6.45	-0.15
-0.10	-3.06	-0.06
-0.24	-3.44	-0.03
-0.36	-3.39	0.00
0.01	-3.02	0.03
-0.10	-3.01	0.05
-0.21	-3.01	0.08
-0.32	-3.01	0.11
7.89	10.25	0.01
5.55	-6.29	-0.23
7.91	10.21	0.01
-0.10	-3.07	-0.06
-0.22	-3.25	-0.03
-0.35	-3.37	0.00
0.02	-3.02	0.03
-0.09	-3.03	0.05
-0.20	-3.02	0.08
-0.31	-3.02	0.11
7.93	10.17	0.01
8.68	12.02	-0.13
-0.09	-3.06	-0.06
-0.20	-3.12	-0.03
-0.34	-3.36	0.00
0.03	-3.02	0.03
-0.08	-3.03	0.05
-0.19	-3.04	0.08
-0.30	-3.02	0.11
7.94	10.12	0.01
8.70	11.96	-0.13
7.93	10.05	0.01
8.68	11.86	-0.13
-0.08	-3.06	-0.06
-0.19	-3.04	-0.03
-0.33	-3.36	0.00
0.04	-3.02	0.03
-0.07	-3.03	0.05
-0.18	-2.99	0.08
-0.29	-3.01	0.11
7.94	10.00	0.01
8.70	11.81	-0.13
-0.07	-3.05	-0.06
7.94	9.93	0.01
8.71	11.75	-0.13
-0.18	-3.04	-0.03
-0.32	-3.38	0.00
0.04	-3.03	0.03
-0.07	-3.03	0.05
-0.17	-3.01	0.08
-0.28	-2.99	0.11
7.92	9.85	0.01
8.76	11.75	-0.13
-0.06	-3.06	-0.06
-0.17	-3.07	-0.03
-0.31	-3.37	0.00
0.05	-3.02	0.03
-0.06	-3.03	0.05
-0.17	-3.01	0.08
-0.28	-3.02	0.11
7.93	9.79	0.01
8.73	11.63	-0.13
7.93	9.74	0.01
8.74	11.56	-0.13
-0.05	-3.06	-0.06
-0.16	-3.04	-0.03
-0.30	-3.37	0.00
0.06	-3.05	0.03
-0.05	-3.02	0.05
-0.16	-3.01	0.08
-0.27	-3.03	0.11
7.96	9.71	0.01
8.61	11.32	-0.13
-0.04	-3.08	-0.06
-0.15	-3.06	-0.03
-0.29	-3.37	0.00
0.07	-3.05	0.03
-0.04	-3.03	0.05
7.99	9.69	0.01
7.85	10.25	-0.12
-0.15	-3.01	0.08
-0.26	-3.03	0.11
8.03	9.68	0.01
7.89	10.24	-0.12
5.28	-6.47	-0.15
-0.03	-3.07	-0.06
-0.14	-3.07	-0.03
-0.25	-3.08	0.00
0.08	-3.05	0.03
-0.03	-3.02	0.05
-0.14	-3.01	0.08
-0.25	-3.02	0.11
8.08	9.68	0.01
7.91	10.20	-0.12
5.52	-6.30	-0.23
8.14	9.69	0.01
7.89	10.12	-0.12
-0.02	-3.08	-0.06
-0.13	-3.06	-0.03
-0.24	-3.06	0.00
0.09	-3.08	0.03
-0.02	-3.01	0.05
-0.13	-3.02	0.08
-0.24	-3.02	0.11
8.19	9.69	0.01
7.91	10.08	-0.11
-0.01	-3.07	-0.06
-0.12	-3.04	-0.03
-0.23	-3.07	0.00
0.10	-3.06	0.03
-0.01	-3.01	0.05
-0.12	-3.03	0.08
8.24	9.68	0.01
7.92	10.03	-0.11
-0.23	-3.02	0.11
8.28	9.67	0.01
7.90	9.93	-0.11
-0.00	-3.08	-0.06
-0.11	-3.05	-0.03
-0.22	-3.06	0.00
0.11	-3.05	0.03
0.00	-3.00	0.05
-0.11	-3.03	0.08
-0.22	-3.01	0.11
8.33	9.67	0.01
7.92	9.90	-0.11
8.38	9.66	0.01
7.90	9.81	-0.11
0.01	-3.10	-0.06
-0.10	-3.05	-0.03
-0.21	-3.06	0.00
0.12	-3.05	0.03
0.01	-3.00	0.05
-0.10	-3.04	0.08
-0.21	-3.01	0.11
8.43	9.66	0.01
7.92	9.77	-0.11
0.02	-3.09	-0.06
-0.09	-3.04	-0.03
-0.21	-3.07	0.00
0.13	-3.05	0.03
0.02	-3.00	0.05
-0.09	-3.04	0.08
-0.20	-3.01	0.11
8.48	9.66	0.01
7.93	9.72	-0.11
5.26	-6.49	-0.15
5.50	-6.31	-0.23
8.52	9.65	0.01
7.96	9.70	-0.11
0.03	-3.04	-0.06
-0.08	-3.05	-0.03
-0.20	-3.05	0.00
0.14	-3.04	0.03
0.03	-3.02	0.05
-0.08	-3.03	0.08
-0.19	-3.01	0.11
8.54	9.61	0.01
8.00	9.69	-0.11
0.04	-3.08	-0.06
-0.07	-3.05	-0.03
-0.19	-3.05	0.00
9.87	11.03	0.01
8.03	9.67	-0.11
0.15	-3.05	0.03
0.04	-3.04	0.05
-0.07	-3.01	0.08
-0.18	-3.04	0.11
9.91	11.01	0.01
8.08	9.66	-0.11
0.05	-3.06	-0.06
-0.07	-3.06	-0.03
-0.18	-3.05	0.00
0.16	-3.05	0.03
0.05	-3.03	0.05
-0.06	-3.02	0.08
-0.17	-3.02	0.11
9.97	11.02	0.01
8.12	9.65	-0.11
9.99	10.96	0.01
8.19	9.67	-0.11
0.06	-3.05	-0.06
-0.06	-3.06	-0.03
-0.17	-3.03	0.00
0.17	-3.05	0.03
0.06	-3.04	0.05
-0.05	-3.05	0.08
-0.16	-3.02	0.11
8.22	9.65	-0.11
0.06	-3.05	-0.06
-0.05	-3.06	-0.03
-0.16	-3.04	0.00
0.18	-3.05	0.03
8.29	9.67	-0.11
0.07	-3.04	0.05
-0.05	-3.02	0.08
-0.16	-3.03	0.11
8.33	9.66	-0.11
0.07	-3.07	-0.06
-0.04	-3.06	-0.03
-0.15	-3.05	0.00
0.19	-3.07	0.03
0.07	-3.03	0.05
-0.04	-3.05	0.08
-0.15	-3.03	0.11
8.37	9.64	-0.11
8.43	9.66	-0.12
0.08	-3.05	-0.06
-0.03	-3.06	-0.03
-0.14	-3.05	0.00
0.20	-3.07	0.03
0.08	-3.05	0.06
-0.03	-3.04	0.08
-0.14	-3.03	0.11
8.48	9.66	-0.12
0.09	-3.04	-0.06
-0.02	-3.04	-0.03
-0.13	-3.05	0.00
0.21	-3.07	0.03
0.09	-3.05	0.06
8.51	9.63	-0.12
-0.02	-3.03	0.08
-0.13	-3.03	0.11
5.24	-6.51	-0.15
5.47	-6.32	-0.23
8.52	9.58	-0.11
0.11	-3.18	-0.06
-0.01	-3.04	-0.03
-0.12	-3.04	0.00
0.22	-3.07	0.03
0.10	-3.05	0.06
-0.01	-3.02	0.08
-0.12	-3.03	0.11
9.85	11.01	-0.13
9.89	10.98	-0.13
0.12	-3.38	-0.06
0.00	-3.03	-0.03
-0.11	-3.03	0.00
0.23	-3.09	0.03
0.11	-3.04	0.06
0.00	-3.02	0.08
-0.11	-3.05	0.11
9.92	10.95	-0.13
9.98	10.94	-0.13
0.13	-3.37	-0.06
0.01	-3.04	-0.03
-0.10	-3.02	0.00
0.24	-3.08	0.03
0.12	-3.04	0.05
0.01	-3.03	0.08
-0.10	-3.03	0.11
10.05	10.96	-0.13
0.14	-3.39	-0.06
0.02	-3.03	-0.03
-0.09	-3.02	0.00
0.25	-3.09	0.03
0.13	-3.04	0.05
0.02	-3.03	0.08
10.10	10.94	-0.13
-0.09	-3.02	0.11
11.75	12.66	-0.15
0.16	-3.41	-0.06
0.03	-3.05	-0.03
-0.08	-3.02	0.00
0.26	-3.11	0.03
0.14	-3.04	0.05
0.03	-3.04	0.08
-0.08	-3.05	0.11
11.72	12.54	-0.15
11.73	12.48	-0.15
0.17	-3.39	-0.06
0.04	-3.06	-0.03
-0.07	-3.03	0.00
0.28	-3.32	0.03
0.15	-3.04	0.06
0.04	-3.04	0.08
-0.07	-3.06	0.11
11.76	12.43	-0.15
0.18	-3.41	-0.06
0.05	-3.05	-0.03
11.77	12.37	-0.15
-0.06	-3.04	0.00
0.30	-3.36	0.03
0.16	-3.05	0.06
0.05	-3.02	0.08
-0.06	-3.07	0.11
11.73	12.25	-0.15
0.19	-3.41	-0.06
0.06	-3.04	-0.03
-0.05	-3.04	0.00
0.31	-3.35	0.03
0.17	-3.05	0.06
0.06	-3.02	0.08
-0.05	-3.06	0.11
11.75	12.19	-0.15
11.75	12.12	-0.15
0.20	-3.41	-0.06
0.07	-3.04	-0.03
-0.04	-3.04	0.00
0.32	-3.38	0.03
0.18	-3.03	0.05
0.07	-3.03	0.08
-0.04	-3.04	0.11
11.75	12.05	-0.15
11.76	11.99	-0.15
0.21	-3.41	-0.06
0.07	-3.02	-0.03
-0.04	-3.05	0.00
0.33	-3.41	0.03
0.19	-3.04	0.06
0.08	-3.04	0.08
-0.03	-3.06	0.11
11.75	11.90	-0.15
5.22	-6.52	-0.15
5.45	-6.33	-0.23
0.22	-3.42	-0.06
0.08	-3.02	-0.03
-0.03	-3.05	0.00
0.34	-3.38	0.03
0.20	-3.05	0.06
0.09	-3.03	0.08
-0.03	-3.06	0.11
11.76	11.84	-0.15
11.74	11.75	-0.15
0.34	-3.29	-0.09
0.23	-3.42	-0.06
0.09	-3.04	-0.03
-0.02	-3.05	0.00
0.36	-3.43	0.03
0.21	-3.06	0.06
0.09	-3.03	0.08
-0.02	-3.05	0.11
11.74	11.68	-0.15
0.35	-3.29	-0.09
11.75	11.61	-0.15
0.24	-3.41	-0.06
0.10	-3.05	-0.03
-0.01	-3.04	0.00
0.37	-3.44	0.03
0.22	-3.07	0.06
0.10	-3.03	0.08
-0.01	-3.04	0.11
11.72	11.51	-0.15
0.36	-3.29	-0.09
0.25	-3.42	-0.06
0.11	-3.04	-0.03
0.00	-3.03	0.00
0.38	-3.43	0.03
0.23	-3.05	0.06
0.11	-3.04	0.08
0.00	-3.05	0.11
11.74	11.46	-0.15
11.74	11.39	-0.15
0.37	-3.30	-0.09
0.26	-3.40	-0.06
0.12	-3.05	-0.03
0.01	-3.03	0.00
0.39	-3.41	0.03
0.24	-3.08	0.06
0.12	-3.03	0.08
0.01	-3.04	0.11
11.71	11.29	-0.15
5.19	-6.53	-0.15
5.44	-6.36	-0.23
0.38	-3.31	-0.09
0.27	-3.39	-0.06
0.13	-3.06	-0.03
0.02	-3.03	0.00
11.71	11.22	-0.15
0.40	-3.40	0.03
0.25	-3.07	0.06
0.13	-3.04	0.08
0.02	-3.05	0.11
11.67	11.12	-0.14
0.39	-3.29	-0.09
0.28	-3.40	-0.06
0.14	-3.08	-0.03
0.03	-3.03	0.00
0.41	-3.39	0.03
0.26	-3.08	0.06
0.14	-3.04	0.08
0.03	-3.07	0.11
11.64	11.02	-0.14
11.74	11.04	-0.14
0.40	-3.30	-0.09
0.29	-3.40	-0.06
0.15	-3.09	-0.03
0.04	-3.03	0.00
0.40	-3.29	0.03
0.27	-3.09	0.06
0.15	-3.04	0.08
0.04	-3.03	0.11
11.68	10.92	-0.14
0.41	-3.28	-0.09
0.30	-3.39	-0.06
0.16	-3.09	-0.03
0.05	-3.03	0.00
0.42	-3.36	0.03
0.28	-3.09	0.06
0.16	-3.03	0.08
11.61	10.79	-0.14
0.05	-3.06	0.11
11.65	10.76	-0.14
0.42	-3.27	-0.09
0.30	-3.31	-0.06
0.17	-3.10	-0.03
0.06	-3.03	0.00
0.43	-3.36	0.03
0.29	-3.12	0.06
0.17	-3.04	0.08
0.06	-3.03	0.11
11.63	10.68	-0.14
0.43	-3.26	-0.09
11.67	10.64	-0.14
0.31	-3.29	-0.06
0.20	-3.43	-0.03
0.07	-3.04	0.00
0.44	-3.37	0.03
0.32	-3.37	0.06
0.18	-3.04	0.08
0.07	-3.05	0.11
11.69	10.60	-0.14
0.44	-3.25	-0.09
0.32	-3.30	-0.06
0.21	-3.48	-0.03
0.08	-3.05	0.00
0.46	-3.37	0.03
0.34	-3.47	0.06
0.19	-3.04	0.08
0.08	-3.02	0.11
11.71	10.55	-0.14
11.73	10.51	-0.14
0.45	-3.23	-0.09
0.33	-3.28	-0.06
0.23	-3.49	-0.03
0.09	-3.07	0.00
0.47	-3.37	0.03
0.35	-3.44	0.06
0.20	-3.04	0.08
0.09	-3.03	0.11
11.76	10.47	-0.14
5.17	-6.54	-0.15
5.43	-6.38	-0.23
0.46	-3.24	-0.09
0.34	-3.28	-0.06
0.24	-3.47	-0.03
0.10	-3.07	0.00
0.48	-3.37	0.03
0.36	-3.44	0.06
0.21	-3.04	0.08
0.10	-3.03	0.11
11.73	10.38	-0.14
11.73	10.32	-0.14
0.47	-3.26	-0.09
0.35	-3.27	-0.06
0.24	-3.45	-0.03
0.10	-3.05	0.00
0.49	-3.37	0.03
0.37	-3.45	0.06
0.22	-3.06	0.08
0.11	-3.04	0.11
11.77	10.29	-0.14
7.53	-0.09	-0.27
11.78	10.23	-0.14
0.48	-3.26	-0.09
0.36	-3.28	-0.06
0.26	-3.46	-0.03
0.11	-3.05	0.00
0.50	-3.36	0.03
0.38	-3.44	0.06
0.23	-3.06	0.08
0.12	-3.05	0.11
11.82	10.20	-0.14
0.49	-3.26	-0.09
0.37	-3.27	-0.06
0.27	-3.44	-0.03
0.12	-3.06	0.00
0.51	-3.36	0.03
0.39	-3.44	0.06
0.24	-3.06	0.08
11.87	10.18	-0.14
0.12	-3.06	0.11
11.94	10.18	-0.14
0.50	-3.25	-0.09
0.38	-3.27	-0.06
0.28	-3.44	-0.03
0.13	-3.05	0.00
0.52	-3.36	0.03
0.40	-3.43	0.06
0.25	-3.07	0.09
0.13	-3.07	0.11
11.97	10.14	-0.14
5.13	-6.53	-0.15
5.38	-6.37	-0.23
12.01	10.11	-0.14
0.52	-3.29	-0.09
0.39	-3.29	-0.06
0.29	-3.47	-0.03
0.14	-3.05	0.00
0.53	-3.36	0.03
0.41	-3.39	0.06
0.26	-3.07	0.08
0.14	-3.05	0.11
12.05	10.08	-0.14
0.53	-3.30	-0.09
0.40	-3.28	-0.06
0.30	-3.47	-0.03
0.15	-3.05	0.00
0.54	-3.36	0.03
12.09	10.05	-0.14
0.41	-3.36	0.06
0.27	-3.09	0.09
0.15	-3.04	0.11
12.13	10.02	-0.14
0.54	-3.31	-0.09
0.41	-3.28	-0.06
0.31	-3.45	-0.03
0.16	-3.05	0.00
0.55	-3.38	0.03
0.42	-3.35	0.06
0.28	-3.07	0.09
0.16	-3.04	0.11
12.17	9.99	-0.14
12.42	10.13	-0.14
0.55	-3.31	-0.09
0.42	-3.28	-0.06
0.32	-3.45	-0.03
0.17	-3.06	0.00
0.56	-3.39	0.03
0.44	-3.36	0.06
0.29	-3.08	0.09
0.17	-3.04	0.11
12.53	10.16	-0.14
7.57	0.23	-0.07
12.58	10.13	-0.14
0.56	-3.29	-0.09
0.43	-3.28	-0.06
0.34	-3.53	-0.03
0.18	-3.08	0.00
0.59	-3.49	0.03
0.45	-3.36	0.06
0.30	-3.09	0.09
0.18	-3.03	0.11
12.69	10.16	-0.15
0.19	-3.09	0.00
0.61	-3.52	0.03
0.30	-3.08	0.09
0.19	-3.05	0.11
12.80	10.19	-0.15
5.38	-6.41	-0.23
0.58	-3.30	-0.09
0.45	-3.24	-0.06
0.20	-3.09	0.00
0.63	-3.58	0.03
12.85	10.16	-0.15
0.31	-3.08	0.09
0.20	-3.05	0.11
12.87	10.11	-0.15
0.21	-3.09	0.00
0.63	-3.50	0.03
0.21	-3.05	0.11
12.88	10.06	-0.15
0.22	-3.11	0.00
0.64	-3.50	0.03
0.22	-3.06	0.11
12.81	9.94	-0.15
0.65	-3.51	0.03
0.23	-3.06	0.11
12.89	9.94	-0.15
0.49	-3.22	-0.06
0.66	-3.51	0.03
0.24	-3.06	0.11
12.87	9.86	-0.15
15.90	12.10	-0.18
0.27	-3.37	0.00
0.67	-3.50	0.03
0.54	-3.51	0.06
0.25	-3.05	0.11
5.34	-6.89	-0.16
5.35	-6.41	-0.23
15.94	12.05	-0.18
0.68	-3.50	0.03
0.54	-3.40	0.06
0.26	-3.08	0.11
16.00	12.03	-0.18
0.70	-3.51	0.03
0.55	-3.40	0.06
0.27	-3.06	0.11
16.04	11.98	-0.18
0.71	-3.51	0.03
0.56	-3.41	0.06
0.28	-3.07	0.11
16.04	11.90	-0.18
0.54	-3.27	-0.06
0.72	-3.52	0.03
0.57	-3.41	0.06
0.29	-3.08	0.11
16.06	11.84	-0.18
5.38	-6.99	-0.16
5.34	-6.44	-0.23
0.74	-3.57	0.03
0.59	-3.44	0.06
0.30	-3.07	0.11
16.00	11.72	-0.18
7.61	0.05	-0.27
0.74	-3.50	0.03
16.11	11.72	-0.18
0.60	-3.44	0.06
16.10	11.64	-0.18
0.75	-3.50	0.03
0.61	-3.45	0.06
0.76	-3.51	0.03
0.64	-3.58	0.07
13.65	10.51	-0.31
0.88	-3.98	-0.11
0.37	-3.39	0.00
0.79	-3.60	0.03
0.63	-3.42	0.06
13.62	10.42	-0.31
5.24	-6.85	-0.16
0.88	-3.96	-0.11
0.78	-3.49	0.03
0.63	-3.40	0.06
5.32	-6.45	-0.23
13.62	10.36	-0.31
0.80	-3.52	0.03
0.64	-3.40	0.06
13.62	10.29	-0.31
7.61	0.09	-0.27
0.40	-3.37	0.00
0.83	-3.60	0.03
0.65	-3.40	0.06
13.63	10.23	-0.31
0.40	-3.34	0.00
0.83	-3.55	0.03
0.66	-3.39	0.06
0.54	-3.42	0.10
13.64	10.17	-0.31
4.97	-6.54	-0.15
5.30	-6.47	-0.23
0.42	-3.38	0.00
0.85	-3.61	0.03
0.68	-3.41	0.06
13.64	10.11	-0.31
0.55	-3.41	0.10
13.67	10.07	-0.31
0.43	-3.35	0.00
0.85	-3.52	0.03
0.69	-3.40	0.06
0.56	-3.40	0.10
13.63	9.97	-0.31
0.44	-3.37	0.00
0.88	-3.62	0.03
0.70	-3.40	0.06
0.57	-3.40	0.10
13.68	9.94	-0.31
13.69	9.89	-0.31
0.75	-3.62	0.07
0.58	-3.40	0.10
4.95	-6.55	-0.15
5.28	-6.49	-0.23
13.70	9.83	-0.31
0.72	-3.38	0.06
13.75	9.81	-0.31
0.73	-3.39	0.06
13.80	9.78	-0.31
0.74	-3.40	0.06
13.99	9.85	-0.31
5.34	-7.12	-0.16
5.26	-6.51	-0.23
0.80	-3.60	0.07
13.98	9.78	-0.31
0.50	-3.38	0.00
14.02	9.74	-0.31
0.77	-3.43	0.06
14.06	9.70	-0.31
0.51	-3.37	0.00
0.82	-3.60	0.07
5.30	-7.11	-0.16
5.24	-6.52	-0.23
14.07	9.64	-0.31
0.52	-3.37	0.00
0.83	-3.61	0.07
14.06	9.58	-0.31
0.84	-3.61	0.07
14.09	9.53	-0.31
0.86	-3.61	0.07
14.12	9.49	-0.31
5.33	-7.20	-0.16
5.22	-6.53	-0.23
0.56	-3.40	0.00
0.87	-3.61	0.07
14.17	9.46	-0.31
2.85	-11.72	-0.22
0.88	-3.61	0.07
14.19	9.41	-0.31
2.89	-11.71	-0.22
0.61	-3.58	0.00
14.23	9.37	-0.31
5.31	-7.21	-0.16
5.19	-6.55	-0.23
14.26	9.33	-0.31
3.76	-15.05	-0.28
0.61	-3.52	0.00
14.30	9.29	-0.31
3.81	-15.03	-0.28
0.62	-3.50	0.00
14.36	9.27	-0.31
3.85	-15.01	-0.28
0.63	-3.50	0.00
14.42	9.25	-0.31
5.30	-7.24	-0.16
5.17	-6.56	-0.23
14.47	9.22	-0.31
3.87	-14.89	-0.28
0.82	-3.70	-0.03
0.64	-3.49	0.00
14.50	9.17	-0.31
3.92	-14.90	-0.28
0.65	-3.50	0.00
14.53	9.13	-0.31
14.57	9.10	-0.31
3.87	-14.52	-0.27
0.67	-3.50	0.00
0.77	-3.36	0.09
14.61	9.06	-0.31
3.84	-14.24	-0.27
0.68	-3.51	0.00
5.37	-7.39	-0.17
14.65	9.02	-0.31
3.88	-14.23	-0.27
0.69	-3.51	0.00
14.68	8.97	-0.31
14.72	8.94	-0.31
3.93	-14.23	-0.27
0.70	-3.52	0.00
5.35	-7.41	-0.17
14.75	8.90	-0.31
3.98	-14.22	-0.27
0.71	-3.52	0.00
14.80	8.86	-0.31
4.03	-14.23	-0.27
0.73	-3.53	0.00
14.89	8.86	-0.32
4.08	-14.24	-0.27
0.75	-3.58	0.00
15.01	8.86	-0.32
5.33	-6.89	-0.24
15.00	8.80	-0.32
4.12	-14.23	-0.27
0.75	-3.51	0.00
15.01	8.74	-0.32
4.17	-14.25	-0.27
0.76	-3.50	0.00
14.98	8.66	-0.32
7.99	-11.20	-0.25
14.95	8.59	-0.31
4.22	-14.25	-0.27
0.76	-3.49	0.00
5.23	-6.81	-0.24
14.97	8.53	-0.31
3.38	-11.28	-0.22
0.77	-3.48	0.00
14.99	8.48	-0.31
15.00	8.43	-0.31
3.38	-11.17	-0.21
0.79	-3.49	0.00
14.97	8.35	-0.31
5.03	-6.58	-0.23
3.41	-11.15	-0.21
0.80	-3.50	0.00
14.87	8.24	-0.31
14.95	8.22	-0.31
3.44	-11.12	-0.21
0.81	-3.50	0.00
15.00	8.19	-0.31
3.48	-11.11	-0.21
0.82	-3.50	0.00
