X	Y	Z
2.35	-11.67	2.89
1.89	-11.60	2.97
1.45	-11.60	3.08
2.82	-11.68	3.28
2.35	-11.63	3.36
1.89	-11.61	3.46
1.44	-11.60	3.57
2.80	-11.67	-0.33
2.81	-11.70	0.54
2.82	-11.70	0.98
2.82	-11.68	1.42
2.83	-11.63	2.78
2.39	-11.68	2.89
1.93	-11.59	2.97
1.48	-11.60	3.08
2.86	-11.68	3.28
2.39	-11.62	3.36
1.93	-11.62	3.46
1.48	-11.60	3.57
2.84	-11.70	-0.34
2.86	-11.69	1.43
2.86	-11.67	1.87
2.87	-11.63	2.78
2.43	-11.68	2.89
1.96	-11.60	2.98
1.52	-11.60	3.09
2.89	-11.67	3.28
2.42	-11.62	3.36
1.97	-11.62	3.46
1.51	-11.59	3.57
2.88	-11.69	-0.34
2.90	-11.69	1.43
2.88	-11.58	1.86
2.91	-11.64	2.79
2.46	-11.65	2.89
2.00	-11.62	2.98
1.56	-11.61	3.09
2.93	-11.66	3.28
2.46	-11.61	3.36
2.00	-11.62	3.47
1.55	-11.59	3.57
2.94	-11.69	1.43
2.93	-11.66	1.87
2.95	-11.64	2.79
2.49	-11.64	2.89
2.04	-11.62	2.99
1.59	-11.61	3.09
2.97	-11.66	3.28
2.50	-11.61	3.36
2.04	-11.62	3.47
1.58	-11.58	3.57
2.97	-11.69	1.43
2.98	-11.67	1.88
2.98	-11.61	2.79
2.53	-11.63	2.89
2.08	-11.62	2.99
1.63	-11.60	3.09
3.00	-11.65	3.28
2.54	-11.62	3.37
2.08	-11.62	3.47
1.62	-11.58	3.58
3.01	-11.69	1.43
2.99	-11.58	1.87
3.02	-11.62	2.79
2.57	-11.64	2.89
2.12	-11.66	3.00
1.66	-11.61	3.09
3.04	-11.64	3.28
2.57	-11.60	3.37
2.12	-11.63	3.47
1.66	-11.59	3.58
3.05	-11.68	1.43
3.03	-11.60	1.87
3.05	-11.61	2.79
2.61	-11.65	2.90
2.16	-11.66	3.00
1.70	-11.60	3.09
3.08	-11.64	3.28
2.61	-11.64	3.38
2.15	-11.63	3.48
1.69	-11.59	3.58
3.09	-11.68	1.43
3.08	-11.61	1.87
1.74	-11.60	2.63
3.11	-11.67	2.81
2.64	-11.63	2.89
2.20	-11.66	3.00
1.74	-11.61	3.10
3.12	-11.67	3.30
2.65	-11.64	3.38
2.19	-11.63	3.48
1.73	-11.59	3.58
3.12	-11.68	1.43
3.11	-11.61	1.88
1.78	-11.63	2.64
3.14	-11.66	2.81
2.68	-11.66	2.90
2.23	-11.65	3.00
1.77	-11.61	3.10
3.16	-11.66	3.29
2.69	-11.65	3.39
2.23	-11.63	3.48
1.77	-11.59	3.58
3.17	-11.69	1.44
3.15	-11.62	1.88
1.82	-11.62	2.64
3.18	-11.66	2.81
2.72	-11.66	2.91
2.27	-11.66	3.00
1.81	-11.61	3.10
3.20	-11.66	3.30
2.73	-11.66	3.39
2.26	-11.62	3.48
1.80	-11.59	3.59
2.74	-11.64	1.09
3.20	-11.69	1.44
3.19	-11.62	1.88
1.85	-11.62	2.64
3.22	-11.64	2.81
2.77	-11.68	2.91
2.31	-11.66	3.01
1.85	-11.60	3.10
3.24	-11.67	3.30
2.77	-11.65	3.39
2.30	-11.61	3.48
1.84	-11.60	3.59
2.77	-11.68	-0.22
2.78	-11.68	0.66
2.78	-11.66	1.09
3.24	-11.69	1.44
3.23	-11.62	1.88
1.89	-11.62	2.64
3.26	-11.66	2.82
2.80	-11.67	2.91
2.35	-11.67	3.01
1.88	-11.59	3.10
3.28	-11.70	3.31
2.81	-11.66	3.40
2.33	-11.60	3.48
1.88	-11.61	3.59
2.79	-11.63	-0.66
2.81	-11.70	-0.22
2.82	-11.70	0.66
2.82	-11.66	1.09
3.28	-11.68	1.44
3.27	-11.61	1.88
1.93	-11.62	2.64
3.30	-11.68	2.82
2.83	-11.65	2.91
2.39	-11.68	3.02
1.92	-11.59	3.10
3.32	-11.70	3.32
2.84	-11.65	3.40
2.37	-11.60	3.48
1.92	-11.60	3.59
2.84	-11.69	-0.66
2.87	-11.71	1.10
3.32	-11.68	1.44
3.30	-11.61	1.88
3.34	-11.67	2.82
2.87	-11.65	2.91
2.42	-11.68	3.02
1.95	-11.58	3.10
3.35	-11.67	3.31
2.88	-11.66	3.40
2.41	-11.59	3.48
1.95	-11.60	3.60
2.88	-11.69	-0.66
3.35	-11.68	1.44
3.34	-11.61	1.88
3.37	-11.64	2.82
2.90	-11.63	2.91
2.46	-11.68	3.02
1.99	-11.58	3.10
3.40	-11.70	3.33
2.91	-11.64	3.40
2.44	-11.60	3.48
1.99	-11.60	3.60
3.39	-11.68	1.44
3.39	-11.62	1.89
3.41	-11.65	2.82
2.95	-11.65	2.92
2.50	-11.67	3.02
2.02	-11.58	3.10
3.44	-11.69	3.32
2.96	-11.65	3.40
2.48	-11.60	3.48
2.03	-11.60	3.60
3.43	-11.68	1.44
3.43	-11.65	1.89
3.44	-11.63	2.82
3.00	-11.69	2.93
2.53	-11.67	3.02
2.06	-11.55	3.10
3.48	-11.72	3.34
2.99	-11.62	3.40
2.52	-11.59	3.49
2.06	-11.61	3.60
3.47	-11.68	1.44
3.47	-11.66	1.90
3.49	-11.65	2.83
3.03	-11.67	2.93
2.57	-11.67	3.02
2.10	-11.61	3.11
3.52	-11.70	3.33
3.03	-11.63	3.40
2.55	-11.60	3.49
2.10	-11.61	3.61
2.59	-11.66	1.20
3.51	-11.68	1.45
3.52	-11.67	1.90
3.54	-11.69	2.84
3.07	-11.67	2.93
2.61	-11.69	3.03
2.14	-11.62	3.12
3.55	-11.68	3.33
3.07	-11.65	3.41
2.59	-11.61	3.49
2.14	-11.62	3.61
2.63	-11.66	1.20
3.55	-11.69	1.45
3.56	-11.69	1.91
3.57	-11.67	2.84
3.11	-11.67	2.93
2.65	-11.67	3.03
2.18	-11.64	3.12
3.61	-11.73	3.35
3.11	-11.64	3.41
2.63	-11.60	3.49
2.17	-11.62	3.61
2.67	-11.66	1.20
3.59	-11.68	1.45
3.60	-11.68	1.91
3.62	-11.71	2.85
3.14	-11.66	2.93
2.69	-11.68	3.03
2.22	-11.66	3.13
3.62	-11.65	3.33
3.16	-11.69	3.43
2.67	-11.61	3.50
2.21	-11.61	3.61
2.71	-11.66	1.20
3.63	-11.68	1.45
3.64	-11.68	1.91
3.67	-11.73	2.86
3.18	-11.66	2.93
2.72	-11.68	3.03
2.26	-11.67	3.14
3.67	-11.68	3.34
3.20	-11.72	3.44
2.71	-11.60	3.50
2.25	-11.61	3.61
2.73	-11.60	0.76
2.74	-11.66	1.21
3.67	-11.68	1.45
3.67	-11.68	1.91
3.69	-11.67	2.85
3.21	-11.64	2.93
2.76	-11.67	3.03
2.30	-11.66	3.14
3.70	-11.66	3.34
3.25	-11.73	3.45
2.75	-11.63	3.51
2.28	-11.61	3.62
2.77	-11.66	-0.54
2.78	-11.66	0.77
2.79	-11.68	1.21
3.71	-11.67	1.45
3.72	-11.68	1.91
3.74	-11.69	2.85
3.26	-11.66	2.94
2.80	-11.67	3.04
2.34	-11.67	3.14
3.74	-11.67	3.34
3.28	-11.70	3.44
2.80	-11.67	3.53
2.32	-11.62	3.62
2.80	-11.66	-0.54
2.81	-11.66	-0.11
2.82	-11.69	0.77
2.83	-11.71	1.21
3.75	-11.68	1.45
3.75	-11.68	1.91
3.77	-11.68	2.85
3.29	-11.65	2.94
2.83	-11.67	3.04
2.37	-11.67	3.14
3.80	-11.71	3.36
3.32	-11.70	3.44
2.83	-11.66	3.52
2.36	-11.62	3.63
2.85	-11.70	-0.55
2.85	-11.68	-0.11
2.86	-11.69	0.77
3.79	-11.69	1.46
3.79	-11.68	1.91
3.81	-11.68	2.86
3.34	-11.69	2.95
2.87	-11.67	3.04
2.41	-11.67	3.14
3.85	-11.75	3.37
3.35	-11.70	3.45
2.87	-11.66	3.53
2.40	-11.63	3.63
2.89	-11.70	-0.55
2.88	-11.64	-0.11
2.89	-11.69	0.33
2.90	-11.68	0.77
3.83	-11.69	1.46
3.83	-11.68	1.92
3.86	-11.71	2.87
3.37	-11.65	2.94
2.91	-11.66	3.04
2.45	-11.68	3.15
3.88	-11.71	3.37
3.39	-11.70	3.45
2.90	-11.65	3.53
2.44	-11.63	3.63
2.48	-11.64	1.32
3.87	-11.70	1.46
3.87	-11.68	1.92
3.90	-11.71	2.87
3.41	-11.64	2.94
2.95	-11.66	3.04
2.49	-11.67	3.15
3.92	-11.73	3.37
3.43	-11.69	3.45
2.94	-11.64	3.53
2.47	-11.63	3.63
2.53	-11.66	1.32
3.91	-11.70	1.46
3.91	-11.68	1.92
3.94	-11.71	2.87
3.46	-11.68	2.96
2.99	-11.67	3.05
2.52	-11.66	3.15
3.96	-11.71	3.37
3.47	-11.68	3.45
2.98	-11.64	3.53
2.51	-11.64	3.64
2.57	-11.67	1.32
3.95	-11.70	1.46
3.46	-11.62	1.55
3.96	-11.70	1.93
3.98	-11.71	2.88
3.50	-11.69	2.96
3.02	-11.66	3.05
2.56	-11.66	3.15
4.00	-11.72	3.38
3.51	-11.70	3.46
3.02	-11.64	3.53
2.55	-11.62	3.64
2.60	-11.66	1.32
3.99	-11.70	1.47
3.51	-11.66	1.56
4.00	-11.69	1.93
4.03	-11.72	2.88
3.53	-11.67	2.96
3.06	-11.66	3.05
2.60	-11.68	3.16
4.04	-11.73	3.38
3.54	-11.68	3.46
3.06	-11.66	3.54
2.58	-11.61	3.64
2.64	-11.67	1.32
4.03	-11.69	1.47
3.55	-11.65	1.56
4.04	-11.70	1.93
4.07	-11.72	2.88
3.58	-11.70	2.97
3.09	-11.64	3.05
2.64	-11.67	3.16
4.07	-11.70	3.38
3.59	-11.69	3.46
3.10	-11.66	3.55
2.62	-11.62	3.64
2.68	-11.68	1.33
4.07	-11.69	1.47
4.08	-11.70	1.93
4.11	-11.72	2.89
3.63	-11.72	2.98
3.14	-11.67	3.06
2.68	-11.68	3.16
4.11	-11.70	3.38
3.64	-11.73	3.48
3.14	-11.69	3.56
2.66	-11.61	3.64
2.72	-11.68	1.33
4.11	-11.69	1.47
4.11	-11.68	1.93
4.15	-11.72	2.89
3.66	-11.71	2.98
3.18	-11.66	3.06
2.71	-11.67	3.16
4.15	-11.69	3.39
3.66	-11.69	3.47
3.18	-11.69	3.56
2.70	-11.62	3.65
2.72	-11.59	-0.43
2.74	-11.62	0.88
2.76	-11.68	1.33
4.15	-11.68	1.47
4.15	-11.68	1.93
4.19	-11.72	2.89
3.69	-11.69	2.98
3.21	-11.66	3.06
2.75	-11.67	3.16
4.19	-11.69	3.39
3.71	-11.70	3.47
3.21	-11.66	3.55
2.74	-11.66	3.66
2.77	-11.68	-0.43
4.19	-11.74	-0.35
4.20	-11.76	0.56
2.79	-11.68	0.89
4.21	-11.76	1.02
2.80	-11.69	1.33
4.19	-11.69	1.47
4.19	-11.67	1.93
2.77	-11.58	2.67
4.23	-11.72	2.90
3.73	-11.68	2.98
3.25	-11.63	3.06
2.79	-11.67	3.17
4.23	-11.69	3.39
3.74	-11.69	3.48
3.26	-11.69	3.57
2.78	-11.66	3.66
4.22	-11.73	-0.80
2.81	-11.69	-0.43
4.22	-11.72	-0.35
4.22	-11.70	0.11
4.22	-11.70	0.56
2.83	-11.69	0.89
4.23	-11.70	1.02
2.83	-11.69	1.33
4.23	-11.70	1.47
4.23	-11.66	1.94
2.81	-11.60	2.68
4.26	-11.71	2.90
3.77	-11.69	2.98
3.30	-11.68	3.07
2.83	-11.67	3.17
4.28	-11.71	3.40
3.79	-11.70	3.48
3.30	-11.69	3.57
2.82	-11.66	3.67
2.81	-11.52	-0.86
4.25	-11.72	-0.80
2.86	-11.70	-0.43
4.25	-11.69	-0.35
4.27	-11.72	0.11
4.27	-11.71	0.56
2.87	-11.70	0.89
4.27	-11.69	1.02
2.87	-11.69	1.33
4.27	-11.69	1.48
4.27	-11.66	1.94
2.85	-11.59	2.68
4.30	-11.70	2.90
3.81	-11.67	2.98
3.34	-11.70	3.08
2.87	-11.68	3.17
4.32	-11.72	3.41
3.83	-11.72	3.49
3.34	-11.70	3.58
2.86	-11.66	3.67
2.84	-11.51	-0.86
4.29	-11.70	-0.80
4.28	-11.67	-0.35
4.30	-11.71	0.11
4.28	-11.64	0.56
4.27	-11.59	1.01
2.91	-11.69	1.33
4.31	-11.69	1.48
4.31	-11.65	1.94
2.89	-11.62	2.68
4.34	-11.70	2.90
3.85	-11.70	2.99
3.37	-11.68	3.08
2.90	-11.67	3.17
4.37	-11.73	3.42
3.86	-11.70	3.49
3.39	-11.72	3.58
2.89	-11.66	3.67
4.33	-11.71	-0.81
4.34	-11.70	0.11
2.95	-11.69	1.33
4.35	-11.69	1.48
4.35	-11.66	1.94
2.93	-11.63	2.69
4.38	-11.68	2.90
3.89	-11.67	2.99
3.42	-11.70	3.08
2.94	-11.66	3.17
4.41	-11.72	3.42
3.92	-11.73	3.50
3.42	-11.71	3.59
2.93	-11.64	3.67
4.37	-11.69	-0.81
4.38	-11.70	0.11
2.99	-11.69	1.33
4.39	-11.69	1.48
2.99	-11.70	1.78
4.39	-11.66	1.94
2.97	-11.63	2.69
4.41	-11.67	2.90
3.93	-11.70	3.00
3.46	-11.70	3.09
2.97	-11.65	3.17
4.45	-11.72	3.42
3.95	-11.71	3.50
3.45	-11.67	3.57
2.96	-11.64	3.67
4.42	-11.73	-0.81
4.43	-11.71	0.11
3.02	-11.68	1.33
4.44	-11.69	1.48
3.46	-11.61	1.67
4.43	-11.65	1.94
3.01	-11.61	2.69
4.46	-11.67	2.91
3.97	-11.69	3.00
3.51	-11.73	3.10
3.01	-11.65	3.17
4.48	-11.70	3.42
3.99	-11.72	3.51
3.49	-11.67	3.58
3.01	-11.67	3.68
4.46	-11.73	-0.81
4.47	-11.72	0.11
3.06	-11.68	1.34
4.48	-11.69	1.48
3.52	-11.67	1.68
4.47	-11.66	1.95
3.04	-11.61	2.69
4.50	-11.69	2.91
4.02	-11.72	3.01
3.54	-11.70	3.09
3.06	-11.67	3.18
4.53	-11.71	3.43
4.03	-11.71	3.51
3.53	-11.67	3.58
3.05	-11.69	3.69
4.50	-11.72	-0.81
4.51	-11.71	0.11
3.10	-11.69	1.34
4.52	-11.70	1.49
3.54	-11.61	1.67
4.51	-11.66	1.95
3.08	-11.61	2.69
4.54	-11.67	2.91
4.05	-11.69	3.00
3.57	-11.69	3.09
3.09	-11.67	3.19
4.57	-11.71	3.43
4.06	-11.69	3.51
3.57	-11.67	3.59
3.10	-11.70	3.70
4.54	-11.72	-0.81
4.55	-11.70	0.11
3.14	-11.71	1.34
4.57	-11.71	1.49
4.54	-11.63	1.95
3.13	-11.65	2.71
4.58	-11.68	2.92
4.10	-11.71	3.01
3.61	-11.69	3.10
3.13	-11.67	3.19
4.60	-11.70	3.43
4.10	-11.68	3.51
3.62	-11.72	3.60
3.13	-11.69	3.70
4.58	-11.71	-0.81
4.59	-11.69	0.11
3.18	-11.70	1.34
4.61	-11.71	1.49
4.58	-11.62	1.95
3.18	-11.70	2.72
4.62	-11.67	2.92
4.14	-11.71	3.01
3.65	-11.68	3.10
3.17	-11.66	3.19
4.63	-11.67	3.43
4.14	-11.68	3.51
3.65	-11.68	3.60
3.17	-11.68	3.70
4.62	-11.71	-0.81
4.63	-11.70	0.11
3.22	-11.71	1.34
4.65	-11.70	1.49
4.61	-11.60	1.95
3.22	-11.70	2.72
4.66	-11.66	2.92
4.18	-11.70	3.01
3.69	-11.68	3.10
3.21	-11.66	3.19
4.69	-11.71	3.44
4.19	-11.70	3.52
3.20	-11.67	3.70
4.66	-11.71	-0.81
4.19	-11.74	-0.69
4.67	-11.70	0.11
4.21	-11.76	0.23
4.21	-11.74	0.68
4.21	-11.73	1.14
3.26	-11.71	1.34
4.68	-11.69	1.49
4.65	-11.59	1.95
3.25	-11.69	2.72
4.70	-11.68	2.93
4.22	-11.70	3.02
3.73	-11.69	3.10
3.25	-11.68	3.20
4.73	-11.71	3.45
4.23	-11.70	3.52
3.74	-11.72	3.61
3.25	-11.70	3.71
4.70	-11.71	-0.81
4.22	-11.72	-0.69
4.23	-11.71	-0.23
4.72	-11.71	0.11
4.23	-11.71	0.22
4.24	-11.71	0.68
4.24	-11.71	1.14
3.30	-11.71	1.35
4.72	-11.68	1.49
3.29	-11.69	2.72
4.75	-11.69	2.93
4.27	-11.72	3.03
3.76	-11.66	3.10
3.30	-11.71	3.21
4.77	-11.70	3.45
4.28	-11.72	3.53
3.78	-11.73	3.62
3.28	-11.66	3.70
4.74	-11.70	-0.82
4.26	-11.71	-0.69
4.26	-11.68	-0.23
4.76	-11.71	0.11
4.27	-11.70	0.23
4.27	-11.70	0.68
4.28	-11.71	1.14
3.34	-11.70	1.35
4.76	-11.67	1.49
3.32	-11.65	2.72
4.79	-11.69	2.94
4.31	-11.74	3.03
3.80	-11.66	3.10
3.33	-11.69	3.21
4.81	-11.69	3.45
4.32	-11.72	3.54
3.82	-11.72	3.62
3.31	-11.65	3.70
4.78	-11.70	-0.82
4.28	-11.66	-0.68
4.29	-11.66	-0.23
4.80	-11.72	0.11
4.31	-11.69	0.23
4.29	-11.63	0.68
4.33	-11.73	1.14
3.38	-11.70	1.35
4.80	-11.67	1.50
3.37	-11.67	2.72
4.84	-11.69	2.94
4.34	-11.71	3.03
3.86	-11.71	3.12
3.36	-11.68	3.21
4.85	-11.69	3.45
4.35	-11.71	3.54
3.85	-11.68	3.61
3.35	-11.66	3.71
4.84	-11.72	-0.82
4.85	-11.71	0.11
4.34	-11.69	0.23
3.41	-11.70	1.35
4.84	-11.67	1.50
3.42	-11.71	2.74
4.87	-11.68	2.94
4.37	-11.68	3.03
3.91	-11.76	3.13
3.40	-11.67	3.21
4.90	-11.71	3.46
4.39	-11.71	3.54
3.90	-11.72	3.63
3.40	-11.66	3.71
4.88	-11.72	-0.82
4.88	-11.71	0.11
4.39	-11.69	0.23
4.86	-11.64	1.03
3.46	-11.71	1.35
4.89	-11.67	1.50
3.44	-11.66	2.73
4.93	-11.71	2.96
4.41	-11.68	3.03
3.93	-11.69	3.12
3.45	-11.71	3.22
4.94	-11.70	3.46
4.44	-11.72	3.55
3.94	-11.71	3.63
4.92	-11.73	-0.82
4.91	-11.68	-0.35
4.93	-11.73	0.11
4.43	-11.69	0.23
4.95	-11.75	0.58
4.95	-11.74	1.04
3.49	-11.70	1.35
4.93	-11.67	1.50
3.47	-11.63	1.79
3.47	-11.64	2.72
4.97	-11.71	2.96
4.45	-11.66	3.03
3.97	-11.70	3.12
3.48	-11.67	3.21
4.99	-11.72	3.47
4.48	-11.71	3.55
3.97	-11.69	3.63
3.48	-11.70	3.73
4.96	-11.73	-0.82
4.95	-11.69	-0.35
4.98	-11.73	0.11
4.47	-11.70	0.23
4.99	-11.74	0.58
4.99	-11.73	1.04
3.53	-11.70	1.35
4.98	-11.70	1.51
3.52	-11.65	1.80
3.51	-11.64	2.73
5.01	-11.71	2.96
4.50	-11.70	3.04
4.02	-11.72	3.14
3.52	-11.67	3.22
5.03	-11.70	3.47
4.52	-11.71	3.55
4.02	-11.71	3.64
3.53	-11.74	3.75
5.01	-11.74	-0.82
5.00	-11.71	-0.36
5.02	-11.72	0.11
4.51	-11.70	0.23
5.03	-11.74	0.58
5.03	-11.72	1.04
3.58	-11.72	1.36
5.02	-11.69	1.51
3.54	-11.59	1.79
3.57	-11.71	2.74
5.06	-11.73	2.97
4.55	-11.70	3.05
4.05	-11.70	3.13
3.56	-11.69	3.22
5.06	-11.68	3.47
4.55	-11.70	3.55
4.05	-11.70	3.64
3.57	-11.72	3.75
5.05	-11.73	-0.82
5.05	-11.72	-0.36
5.06	-11.72	0.11
4.55	-11.70	0.23
5.06	-11.73	0.58
5.07	-11.73	1.05
3.62	-11.72	1.36
5.06	-11.70	1.51
3.58	-11.61	2.72
5.09	-11.69	2.96
4.59	-11.70	3.05
4.09	-11.70	3.14
3.60	-11.68	3.23
5.11	-11.69	3.48
4.60	-11.70	3.56
4.08	-11.66	3.63
3.60	-11.69	3.74
5.09	-11.72	-0.82
5.08	-11.69	-0.36
5.10	-11.71	0.11
4.60	-11.70	0.23
5.11	-11.72	1.05
3.66	-11.72	1.36
5.11	-11.69	1.51
3.65	-11.71	2.75
5.13	-11.69	2.97
4.62	-11.69	3.05
4.13	-11.70	3.14
3.63	-11.66	3.22
5.15	-11.70	3.49
4.65	-11.73	3.57
4.14	-11.71	3.65
3.63	-11.66	3.73
5.13	-11.71	-0.82
5.11	-11.65	-0.35
4.63	-11.69	0.23
4.18	-11.75	1.26
3.69	-11.72	1.36
5.14	-11.68	1.51
3.68	-11.67	2.74
5.18	-11.70	2.97
4.67	-11.70	3.06
4.17	-11.70	3.14
3.68	-11.67	3.23
5.19	-11.68	3.49
4.69	-11.73	3.58
4.18	-11.71	3.65
3.67	-11.68	3.74
5.17	-11.70	-0.83
4.68	-11.71	0.23
4.21	-11.75	0.34
4.21	-11.74	0.80
4.69	-11.71	1.15
4.21	-11.72	1.25
3.73	-11.72	1.36
5.18	-11.67	1.51
3.73	-11.72	2.76
5.19	-11.63	2.96
4.72	-11.73	3.07
4.22	-11.72	3.15
3.72	-11.70	3.24
4.73	-11.72	3.58
4.21	-11.70	3.65
3.73	-11.73	3.76
5.20	-11.67	-0.82
4.23	-11.71	-0.56
4.24	-11.72	-0.11
4.72	-11.71	0.23
4.24	-11.71	0.34
4.24	-11.71	0.80
4.25	-11.72	1.25
3.77	-11.71	1.36
5.22	-11.66	1.52
3.77	-11.70	2.76
4.76	-11.71	3.07
4.26	-11.71	3.15
3.75	-11.67	3.24
4.77	-11.72	3.58
4.26	-11.73	3.67
3.75	-11.66	3.74
4.26	-11.70	-0.56
4.27	-11.70	-0.11
4.77	-11.71	0.23
4.27	-11.70	0.34
4.28	-11.70	0.80
4.76	-11.66	1.15
4.29	-11.72	1.26
3.81	-11.71	1.36
3.81	-11.72	2.76
4.80	-11.71	3.07
4.30	-11.70	3.15
3.80	-11.68	3.24
4.81	-11.72	3.59
4.30	-11.72	3.67
3.80	-11.71	3.76
4.26	-11.57	-0.56
4.81	-11.71	0.23
4.31	-11.68	0.80
4.81	-11.69	1.15
4.33	-11.71	1.26
3.85	-11.71	1.36
3.83	-11.66	2.75
4.84	-11.70	3.07
4.33	-11.67	3.15
4.85	-11.72	3.59
4.34	-11.72	3.67
3.84	-11.70	3.76
4.85	-11.71	0.23
4.84	-11.67	1.15
4.36	-11.70	1.26
3.89	-11.71	1.37
3.90	-11.74	2.77
5.37	-11.65	2.98
4.88	-11.70	3.08
4.37	-11.69	3.16
3.90	-11.74	3.26
4.90	-11.72	3.60
4.38	-11.70	3.67
3.89	-11.73	3.78
4.89	-11.70	0.23
4.92	-11.75	0.70
4.88	-11.66	1.15
4.41	-11.70	1.26
3.93	-11.72	1.37
3.93	-11.71	2.77
5.41	-11.64	2.98
4.92	-11.70	3.08
4.41	-11.69	3.16
3.92	-11.71	3.26
4.94	-11.72	3.60
4.42	-11.72	3.68
3.91	-11.68	3.76
4.91	-11.68	-0.70
4.93	-11.71	-0.23
4.93	-11.69	0.23
4.94	-11.72	0.70
4.94	-11.70	1.16
4.45	-11.70	1.26
3.97	-11.72	1.37
3.98	-11.73	2.78
5.45	-11.64	2.99
4.96	-11.69	3.08
4.45	-11.69	3.16
3.97	-11.72	3.26
4.98	-11.71	3.60
4.47	-11.74	3.69
3.96	-11.70	3.77
5.48	-11.72	-0.84
4.97	-11.71	-0.70
4.98	-11.73	-0.23
4.97	-11.70	0.23
4.99	-11.73	0.70
4.99	-11.72	1.16
4.49	-11.72	1.26
4.01	-11.72	1.37
4.02	-11.74	2.78
5.49	-11.63	2.99
5.00	-11.69	3.09
4.49	-11.68	3.17
4.00	-11.70	3.26
5.01	-11.69	3.60
4.50	-11.71	3.69
4.00	-11.70	3.78
5.52	-11.71	-0.84
5.01	-11.71	-0.70
5.03	-11.74	-0.23
4.99	-11.63	0.23
5.04	-11.74	0.70
5.03	-11.71	1.16
4.54	-11.73	1.27
4.05	-11.72	1.37
5.03	-11.70	1.63
4.06	-11.73	2.78
5.54	-11.64	3.00
5.04	-11.67	3.09
4.54	-11.68	3.17
4.04	-11.70	3.27
5.06	-11.70	3.61
4.54	-11.69	3.68
4.03	-11.69	3.78
5.56	-11.70	-0.84
5.05	-11.71	-0.70
5.08	-11.75	0.70
4.58	-11.74	1.27
4.09	-11.71	1.37
5.08	-11.71	1.63
4.54	-11.59	2.66
4.09	-11.71	2.78
5.58	-11.63	3.00
5.10	-11.72	3.10
4.58	-11.70	3.18
4.08	-11.69	3.27
5.09	-11.68	3.61
4.59	-11.72	3.70
4.07	-11.68	3.78
5.59	-11.68	-0.84
5.13	-11.74	0.70
5.63	-11.63	3.00
5.13	-11.69	3.10
4.62	-11.69	3.18
4.13	-11.71	3.28
5.14	-11.70	3.62
4.63	-11.71	3.70
4.11	-11.68	3.78
5.13	-11.69	-0.70
5.12	-11.66	-0.23
4.67	-11.75	1.27
4.17	-11.71	1.37
4.63	-11.62	2.67
4.17	-11.71	2.79
5.67	-11.64	3.01
5.19	-11.74	3.12
4.67	-11.70	3.19
4.17	-11.71	3.28
5.18	-11.69	3.62
4.67	-11.71	3.71
4.17	-11.73	3.80
5.17	-11.69	-0.70
4.21	-11.75	0.01
4.22	-11.75	0.46
4.21	-11.73	0.92
4.71	-11.73	1.27
4.21	-11.72	1.38
4.68	-11.65	2.68
4.21	-11.70	2.79
5.18	-11.62	3.09
4.70	-11.69	3.19
4.21	-11.72	3.29
5.20	-11.64	3.61
4.72	-11.72	3.71
4.21	-11.73	3.81
5.20	-11.65	-0.70
4.24	-11.72	-0.45
4.24	-11.71	0.01
4.25	-11.72	0.46
4.24	-11.70	0.92
4.75	-11.73	1.27
4.26	-11.72	1.38
4.73	-11.67	2.69
4.25	-11.69	2.79
5.76	-11.64	3.02
4.74	-11.68	3.19
4.26	-11.73	3.29
4.75	-11.71	3.71
4.25	-11.73	3.81
4.27	-11.70	-0.45
5.82	-11.77	-0.37
4.28	-11.71	0.01
4.28	-11.69	0.46
4.28	-11.68	0.92
4.78	-11.72	1.27
4.29	-11.71	1.38
4.78	-11.68	2.70
4.28	-11.68	2.79
5.81	-11.64	3.03
4.78	-11.67	3.19
4.29	-11.72	3.29
5.28	-11.62	3.61
4.79	-11.70	3.71
4.28	-11.71	3.81
4.28	-11.61	-0.45
4.29	-11.64	0.01
4.83	-11.72	1.28
4.34	-11.72	1.38
4.82	-11.67	2.70
4.32	-11.67	2.79
5.85	-11.64	3.03
4.82	-11.67	3.19
4.33	-11.72	3.30
4.83	-11.69	3.72
4.33	-11.71	3.82
4.87	-11.73	1.28
4.38	-11.73	1.38
4.86	-11.67	2.70
4.36	-11.67	2.79
5.90	-11.65	3.04
5.35	-11.62	3.10
4.87	-11.70	3.21
4.37	-11.71	3.30
5.36	-11.62	3.62
4.87	-11.70	3.72
4.37	-11.73	3.83
5.37	-11.65	-0.71
4.92	-11.77	0.35
4.89	-11.67	0.81
4.92	-11.74	1.28
4.43	-11.73	1.39
4.90	-11.68	2.71
4.40	-11.67	2.80
5.94	-11.64	3.04
4.92	-11.71	3.21
4.41	-11.71	3.30
4.92	-11.70	3.73
4.41	-11.73	3.83
5.41	-11.64	-0.71
4.94	-11.73	-0.58
4.96	-11.75	-0.11
4.95	-11.74	0.35
4.95	-11.72	0.82
4.43	-11.65	0.92
4.96	-11.74	1.28
4.46	-11.71	1.39
4.95	-11.69	2.71
4.45	-11.69	2.80
4.97	-11.72	3.22
4.44	-11.69	3.30
4.96	-11.71	3.74
4.45	-11.71	3.83
5.46	-11.66	-0.71
4.98	-11.72	-0.58
4.99	-11.74	-0.11
4.99	-11.72	0.35
4.99	-11.72	0.82
4.44	-11.59	0.92
5.00	-11.73	1.28
4.50	-11.73	1.39
5.00	-11.70	2.72
4.49	-11.69	2.81
5.01	-11.71	3.22
4.47	-11.66	3.30
5.00	-11.70	3.74
4.49	-11.70	3.83
6.03	-11.66	-0.85
5.52	-11.69	-0.71
5.02	-11.72	-0.58
5.03	-11.73	-0.11
5.03	-11.72	0.35
5.04	-11.72	0.82
5.04	-11.73	1.29
4.54	-11.72	1.39
5.03	-11.68	1.75
5.04	-11.71	2.73
4.53	-11.69	2.81
5.04	-11.70	3.22
4.52	-11.68	3.30
5.04	-11.69	3.74
4.53	-11.70	3.83
6.09	-11.69	-0.85
5.55	-11.68	-0.71
5.06	-11.71	-0.58
5.07	-11.71	-0.11
5.07	-11.71	0.35
5.07	-11.71	0.82
5.08	-11.72	1.29
4.59	-11.72	1.39
5.07	-11.69	1.76
5.09	-11.72	2.73
4.57	-11.69	2.82
6.13	-11.65	3.06
5.08	-11.68	3.22
4.56	-11.66	3.30
5.08	-11.68	3.74
4.57	-11.70	3.84
6.15	-11.71	-0.85
5.09	-11.69	-0.58
5.10	-11.69	-0.11
5.11	-11.69	0.82
5.11	-11.69	1.28
4.63	-11.72	1.39
5.10	-11.65	1.75
5.13	-11.72	2.73
4.62	-11.70	2.82
5.12	-11.68	3.23
4.61	-11.70	3.32
5.12	-11.68	3.75
4.61	-11.70	3.85
6.19	-11.71	-0.85
5.11	-11.63	-0.58
5.14	-11.69	-0.11
4.67	-11.74	1.40
5.19	-11.74	2.74
4.66	-11.70	2.82
5.16	-11.67	3.23
4.66	-11.71	3.32
5.15	-11.65	3.74
4.65	-11.70	3.85
6.24	-11.72	-0.86
4.72	-11.73	1.40
5.23	-11.74	2.75
4.70	-11.69	2.82
5.19	-11.65	3.23
4.70	-11.70	3.33
4.69	-11.69	3.85
6.29	-11.72	-0.86
5.73	-11.68	-0.72
5.78	-11.77	-0.24
6.35	-11.82	0.12
4.76	-11.73	1.40
5.27	-11.73	2.75
4.73	-11.67	2.82
4.74	-11.70	3.33
4.73	-11.69	3.86
6.34	-11.72	-0.86
5.78	-11.68	-0.72
5.82	-11.75	-0.24
4.80	-11.73	1.40
5.31	-11.73	2.75
4.77	-11.67	2.83
5.26	-11.62	3.23
4.78	-11.69	3.33
5.81	-11.64	3.68
4.77	-11.69	3.86
6.38	-11.72	-0.86
5.84	-11.72	-0.72
4.84	-11.74	1.40
5.35	-11.73	2.76
4.82	-11.69	2.83
4.82	-11.70	3.34
5.86	-11.65	3.69
5.31	-11.63	3.76
4.81	-11.69	3.86
6.44	-11.74	-0.86
5.88	-11.70	-0.72
4.89	-11.74	1.41
5.40	-11.74	2.76
4.87	-11.69	2.84
4.87	-11.72	3.35
5.91	-11.65	3.70
5.35	-11.62	3.76
4.86	-11.70	3.87
6.49	-11.74	-0.87
5.91	-11.68	-0.72
4.90	-11.73	-0.46
4.92	-11.75	0.01
4.92	-11.75	0.47
4.90	-11.69	0.94
4.92	-11.73	1.41
5.95	-11.66	2.67
5.45	-11.75	2.77
4.92	-11.72	2.85
4.91	-11.71	3.35
4.90	-11.69	3.88
6.52	-11.72	-0.87
4.94	-11.72	-0.46
4.96	-11.75	0.01
4.96	-11.74	0.47
4.96	-11.73	0.94
4.97	-11.74	1.41
6.01	-11.70	2.68
5.49	-11.73	2.77
4.96	-11.71	2.85
4.95	-11.70	3.35
4.94	-11.70	3.88
4.98	-11.72	-0.46
5.00	-11.74	0.01
5.00	-11.72	0.47
5.00	-11.73	0.94
5.01	-11.74	1.41
6.05	-11.69	2.68
5.53	-11.73	2.77
5.00	-11.71	2.85
4.99	-11.70	3.36
4.98	-11.67	3.88
6.04	-11.67	-0.72
5.03	-11.72	-0.46
5.04	-11.73	0.01
5.03	-11.71	0.47
5.04	-11.73	0.94
5.05	-11.73	1.41
5.03	-11.67	1.88
6.11	-11.73	2.69
5.57	-11.72	2.77
5.04	-11.72	2.86
6.65	-11.67	3.12
5.03	-11.69	3.36
5.01	-11.66	3.88
6.11	-11.70	-0.73
5.06	-11.71	-0.46
5.08	-11.73	0.01
5.08	-11.71	0.94
5.08	-11.71	1.41
5.08	-11.70	1.88
6.17	-11.75	2.70
5.61	-11.71	2.78
5.09	-11.72	2.87
5.07	-11.68	3.36
5.07	-11.69	3.89
6.15	-11.71	-0.73
5.10	-11.70	-0.46
5.11	-11.70	0.01
5.10	-11.67	0.94
5.11	-11.66	1.41
5.13	-11.72	1.89
6.21	-11.73	2.70
5.67	-11.75	2.79
5.14	-11.74	2.87
5.11	-11.67	3.36
5.10	-11.66	3.89
6.20	-11.72	-0.73
5.14	-11.68	-0.46
5.20	-11.77	1.90
6.26	-11.74	2.71
5.71	-11.74	2.79
5.18	-11.73	2.88
5.16	-11.69	3.37
5.15	-11.68	3.90
6.25	-11.71	-0.73
5.20	-11.69	1.89
6.32	-11.76	2.72
5.77	-11.76	2.80
5.22	-11.73	2.88
5.20	-11.68	3.37
5.19	-11.68	3.91
6.29	-11.71	-0.73
5.26	-11.71	1.90
6.37	-11.78	2.73
5.81	-11.75	2.80
5.27	-11.73	2.88
5.22	-11.65	3.37
6.33	-11.66	3.76
5.23	-11.66	3.91
6.34	-11.70	-0.73
5.29	-11.69	1.90
6.42	-11.79	2.73
5.84	-11.74	2.80
5.31	-11.73	2.89
5.26	-11.62	3.37
5.27	-11.67	3.91
6.38	-11.71	-0.73
5.35	-11.72	1.90
6.46	-11.78	2.73
5.89	-11.73	2.81
5.35	-11.73	2.89
5.34	-11.72	3.94
6.42	-11.69	-0.73
5.38	-11.70	1.90
6.50	-11.76	2.74
5.93	-11.73	2.81
5.39	-11.73	2.89
5.34	-11.62	3.37
5.39	-11.75	3.95
6.46	-11.67	-0.73
5.42	-11.69	1.90
6.55	-11.77	2.74
5.97	-11.72	2.81
5.46	-11.78	2.91
5.38	-11.62	3.38
5.94	-11.65	3.84
5.44	-11.76	3.96
6.51	-11.68	-0.74
5.46	-11.67	1.90
6.61	-11.79	2.75
6.01	-11.71	2.81
5.50	-11.77	2.91
7.17	-11.70	3.74
5.49	-11.76	3.97
5.51	-11.68	1.91
6.66	-11.79	2.76
6.05	-11.70	2.81
5.54	-11.76	2.91
7.20	-11.70	3.19
5.49	-11.68	3.95
7.25	-11.78	0.12
7.23	-11.74	0.62
7.25	-11.76	1.13
7.28	-11.80	1.64
5.58	-11.74	1.92
7.28	-11.76	2.68
6.72	-11.80	2.76
6.10	-11.70	2.82
5.58	-11.76	2.92
5.57	-11.75	3.97
7.26	-11.73	-0.38
7.29	-11.76	0.12
7.26	-11.71	0.62
7.29	-11.74	1.13
7.32	-11.79	1.65
5.62	-11.73	1.92
7.32	-11.75	2.68
6.76	-11.79	2.77
6.15	-11.72	2.83
5.63	-11.76	2.92
5.61	-11.74	3.98
6.73	-11.73	-0.74
7.30	-11.71	-0.38
7.32	-11.74	0.12
7.33	-11.72	1.13
5.66	-11.73	1.92
7.37	-11.75	2.69
6.82	-11.81	2.78
6.22	-11.75	2.84
5.67	-11.76	2.93
5.68	-11.79	4.00
5.71	-11.74	1.93
7.44	-11.79	2.70
6.86	-11.80	2.78
6.26	-11.74	2.84
5.72	-11.76	2.93
5.65	-11.63	3.41
5.69	-11.72	3.98
5.75	-11.74	1.93
7.49	-11.77	2.70
6.89	-11.77	2.78
6.31	-11.75	2.85
5.77	-11.77	2.94
5.74	-11.74	3.99
5.81	-11.80	0.01
5.79	-11.73	1.93
7.53	-11.77	2.71
6.95	-11.78	2.78
6.38	-11.79	2.86
5.81	-11.76	2.94
6.89	-11.68	3.29
6.38	-11.78	3.94
5.77	-11.71	3.99
6.92	-11.73	-0.75
7.58	-11.83	0.64
5.84	-11.72	1.93
7.60	-11.79	2.72
6.99	-11.78	2.79
6.42	-11.78	2.87
5.85	-11.75	2.94
6.95	-11.69	3.30
6.43	-11.79	3.95
5.82	-11.71	4.00
6.97	-11.74	-0.75
7.65	-11.85	0.64
5.88	-11.72	1.94
7.65	-11.79	2.72
7.03	-11.77	2.79
6.47	-11.78	2.87
5.89	-11.74	2.94
6.46	-11.77	3.95
5.85	-11.69	4.00
7.02	-11.73	-0.75
7.70	-11.85	0.64
5.91	-11.69	1.45
5.92	-11.71	1.94
7.71	-11.80	2.73
7.08	-11.75	2.79
6.50	-11.76	2.87
5.93	-11.73	2.95
6.51	-11.77	3.95
5.90	-11.69	4.00
7.07	-11.73	-0.75
7.75	-11.84	0.64
5.97	-11.72	1.45
5.97	-11.72	1.94
7.75	-11.79	2.73
7.14	-11.77	2.80
6.55	-11.77	2.88
5.98	-11.73	2.95
6.55	-11.76	3.96
5.96	-11.72	4.02
7.79	-11.83	0.64
6.00	-11.69	1.45
6.02	-11.73	1.95
7.81	-11.80	2.74
7.20	-11.80	2.81
6.61	-11.78	2.89
6.02	-11.74	2.96
7.15	-11.69	3.88
6.61	-11.77	3.97
6.01	-11.73	4.03
7.15	-11.70	-0.75
7.84	-11.82	0.64
6.05	-11.69	1.46
6.09	-11.77	1.96
7.90	-11.86	2.76
7.23	-11.77	2.81
6.65	-11.77	2.89
6.07	-11.73	2.96
7.26	-11.78	3.92
6.65	-11.77	3.97
6.05	-11.72	4.03
7.23	-11.75	-0.76
7.24	-11.77	-0.25
7.26	-11.79	0.25
7.87	-11.79	0.64
7.27	-11.78	0.76
7.27	-11.78	1.26
6.09	-11.69	1.46
7.28	-11.78	1.77
6.12	-11.75	1.96
7.95	-11.85	2.77
7.28	-11.77	2.82
6.69	-11.76	2.89
7.33	-11.81	3.93
6.72	-11.80	3.99
6.12	-11.77	4.05
7.29	-11.76	-0.76
7.28	-11.74	-0.25
7.31	-11.77	0.25
7.30	-11.76	0.76
7.30	-11.74	1.26
6.13	-11.67	1.46
7.31	-11.76	1.77
6.17	-11.76	1.96
7.99	-11.83	2.77
7.33	-11.76	2.82
6.76	-11.80	2.91
6.12	-11.65	2.95
7.39	-11.84	3.95
6.77	-11.81	4.00
6.15	-11.74	4.05
7.32	-11.74	-0.76
7.30	-11.69	-0.25
7.33	-11.74	0.25
7.34	-11.74	0.76
7.32	-11.70	1.26
6.17	-11.67	1.46
6.21	-11.75	1.96
8.05	-11.85	2.78
7.39	-11.78	2.83
6.80	-11.79	2.91
6.18	-11.69	2.96
7.43	-11.82	3.95
6.81	-11.80	4.00
6.20	-11.75	4.06
7.37	-11.73	-0.76
6.24	-11.71	1.47
6.26	-11.76	1.97
8.10	-11.83	2.78
7.44	-11.78	2.84
6.85	-11.79	2.91
6.22	-11.68	2.97
7.49	-11.83	3.96
6.86	-11.79	4.01
6.25	-11.76	4.07
7.44	-11.77	-0.77
6.30	-11.74	1.47
6.30	-11.75	1.97
8.13	-11.81	2.78
7.49	-11.78	2.84
6.90	-11.79	2.92
6.26	-11.66	2.97
7.54	-11.83	3.97
6.90	-11.79	4.01
6.32	-11.80	4.09
7.49	-11.78	-0.77
6.36	-11.76	1.48
6.35	-11.74	1.97
8.19	-11.81	2.78
7.58	-11.84	2.86
6.94	-11.78	2.92
6.31	-11.68	2.98
7.60	-11.83	3.98
6.94	-11.77	4.02
6.37	-11.80	4.10
7.54	-11.77	-0.77
7.60	-11.83	0.77
6.40	-11.76	1.48
6.39	-11.73	1.97
8.23	-11.79	2.79
7.60	-11.79	2.86
6.99	-11.77	2.93
8.31	-11.86	3.95
7.64	-11.83	3.99
7.00	-11.79	4.03
6.41	-11.79	4.10
7.59	-11.76	-0.77
7.65	-11.83	0.77
6.44	-11.74	1.48
6.43	-11.71	1.97
8.33	-11.85	2.81
7.67	-11.82	2.87
7.07	-11.82	2.94
8.37	-11.87	3.96
7.69	-11.82	3.99
7.04	-11.77	4.03
6.47	-11.81	4.12
7.63	-11.75	-0.77
7.70	-11.83	0.77
8.27	-11.74	1.17
6.50	-11.75	1.49
8.34	-11.83	1.72
6.46	-11.70	1.97
8.36	-11.82	2.81
7.73	-11.83	2.88
7.11	-11.81	2.95
8.42	-11.86	3.97
7.73	-11.81	4.00
7.09	-11.77	4.04
6.49	-11.76	4.11
7.69	-11.76	-0.77
8.36	-11.83	-0.40
8.32	-11.75	0.12
8.37	-11.81	0.65
7.75	-11.83	0.77
8.37	-11.81	1.18
6.54	-11.75	1.49
8.40	-11.84	1.72
6.50	-11.68	1.97
8.41	-11.81	2.81
7.77	-11.81	2.88
7.14	-11.77	2.94
8.46	-11.83	3.97
7.78	-11.80	4.00
7.17	-11.83	4.07
6.53	-11.75	4.11
7.78	-11.81	-0.78
8.40	-11.79	-0.40
7.81	-11.83	0.77
8.44	-11.82	1.19
6.58	-11.75	1.49
8.44	-11.82	1.72
6.54	-11.66	1.97
8.46	-11.82	2.82
7.82	-11.81	2.88
7.18	-11.77	2.95
8.51	-11.83	3.98
7.82	-11.78	4.00
7.20	-11.79	4.06
6.57	-11.75	4.11
7.83	-11.82	-0.78
8.44	-11.79	-0.40
7.85	-11.81	0.78
8.49	-11.82	1.19
6.64	-11.76	1.49
8.49	-11.81	1.72
7.21	-11.75	1.90
8.51	-11.80	2.82
7.89	-11.84	2.90
7.22	-11.76	2.95
8.51	-11.78	3.38
8.57	-11.84	3.99
7.89	-11.81	4.02
7.28	-11.84	4.08
6.63	-11.76	4.12
7.88	-11.82	-0.78
7.23	-11.75	-0.62
7.26	-11.78	-0.12
7.25	-11.76	0.38
7.27	-11.77	0.89
8.53	-11.80	1.19
7.25	-11.75	1.39
6.69	-11.77	1.50
8.55	-11.81	1.73
7.26	-11.75	1.90
8.58	-11.83	2.83
7.95	-11.86	2.91
7.27	-11.74	2.95
8.58	-11.81	3.39
8.64	-11.86	4.00
7.95	-11.82	4.03
7.32	-11.82	4.09
6.68	-11.76	4.13
7.92	-11.80	-0.78
7.28	-11.74	-0.63
7.30	-11.76	-0.12
7.29	-11.74	0.38
7.30	-11.74	0.89
8.59	-11.81	1.19
7.29	-11.73	1.39
6.72	-11.74	1.50
8.60	-11.80	1.73
7.32	-11.76	1.91
8.66	-11.85	2.84
8.00	-11.85	2.91
7.31	-11.74	2.96
6.69	-11.68	3.02
8.67	-11.86	3.42
8.68	-11.84	4.01
8.03	-11.85	4.05
7.36	-11.81	4.09
6.71	-11.74	4.13
7.98	-11.80	-0.78
7.32	-11.73	-0.63
7.33	-11.73	-0.12
7.32	-11.70	0.38
8.63	-11.78	1.19
6.78	-11.75	1.50
8.65	-11.80	1.73
7.36	-11.75	1.91
8.69	-11.82	2.84
8.05	-11.84	2.91
7.36	-11.74	2.96
6.74	-11.68	3.02
8.73	-11.86	3.42
8.74	-11.84	4.02
8.04	-11.80	4.04
7.41	-11.81	4.10
6.79	-11.78	4.16
8.02	-11.78	-0.78
8.69	-11.79	1.20
6.83	-11.76	1.50
8.71	-11.80	1.74
7.40	-11.73	1.91
8.76	-11.84	2.85
8.09	-11.81	2.91
7.40	-11.72	2.96
8.81	-11.89	3.44
6.78	-11.68	3.56
8.79	-11.84	4.02
8.14	-11.86	4.07
7.47	-11.82	4.11
6.83	-11.78	4.16
8.06	-11.76	-0.78
8.77	-11.83	1.20
6.88	-11.76	1.51
8.76	-11.80	1.74
7.48	-11.78	1.92
8.83	-11.85	2.86
8.15	-11.83	2.93
8.88	-11.91	3.45
8.83	-11.81	4.02
8.21	-11.88	4.09
7.49	-11.77	4.10
6.89	-11.79	4.17
8.13	-11.79	-0.79
8.82	-11.81	1.21
6.94	-11.78	1.51
8.81	-11.79	1.75
7.52	-11.76	1.92
8.90	-11.87	2.87
8.19	-11.81	2.93
8.93	-11.90	3.46
8.91	-11.85	4.04
8.27	-11.89	4.10
7.58	-11.83	4.13
6.93	-11.78	4.18
8.19	-11.80	-0.79
6.98	-11.77	1.51
8.85	-11.76	1.75
7.57	-11.76	1.93
8.97	-11.89	2.89
8.26	-11.83	2.94
6.93	-11.68	3.04
8.95	-11.85	3.45
8.98	-11.86	4.06
8.31	-11.87	4.10
7.62	-11.82	4.13
6.98	-11.78	4.19
8.25	-11.80	-0.79
7.04	-11.78	1.52
7.62	-11.76	1.93
9.02	-11.88	2.89
8.36	-11.89	2.96
8.99	-11.83	3.45
9.07	-11.90	4.08
8.36	-11.88	4.11
7.68	-11.83	4.15
7.02	-11.76	4.19
8.32	-11.84	-0.80
7.72	-11.86	0.39
8.31	-11.79	0.79
8.31	-11.79	1.32
7.08	-11.77	1.52
8.96	-11.77	1.75
8.32	-11.78	1.85
7.69	-11.79	1.94
9.08	-11.89	2.90
8.39	-11.87	2.96
9.06	-11.85	3.47
9.10	-11.87	4.08
8.39	-11.84	4.11
7.74	-11.85	4.16
7.11	-11.83	4.22
8.37	-11.82	-0.80
8.36	-11.80	-0.26
7.74	-11.81	0.39
8.37	-11.79	0.79
8.36	-11.78	1.32
7.11	-11.74	1.52
9.09	-11.86	1.77
8.38	-11.80	1.85
7.74	-11.78	1.94
9.11	-11.86	2.90
8.43	-11.84	2.96
9.12	-11.85	3.48
7.08	-11.70	3.61
9.14	-11.85	4.08
8.47	-11.87	4.13
7.79	-11.84	4.16
7.16	-11.83	4.23
8.41	-11.80	-0.80
8.40	-11.77	0.79
9.12	-11.84	1.22
8.43	-11.79	1.32
7.16	-11.73	1.52
9.13	-11.84	1.77
8.43	-11.78	1.86
7.78	-11.77	1.94
9.19	-11.88	2.91
8.48	-11.83	2.96
9.20	-11.88	3.49
9.19	-11.84	4.09
8.56	-11.92	4.15
7.82	-11.81	4.16
7.22	-11.86	4.24
8.45	-11.78	-0.80
7.89	-11.87	0.39
9.18	-11.84	0.68
8.44	-11.74	0.79
9.22	-11.89	1.23
8.50	-11.82	1.33
7.25	-11.80	1.53
9.19	-11.84	1.78
8.52	-11.83	1.87
7.82	-11.75	1.95
9.23	-11.85	2.91
8.56	-11.86	2.98
9.24	-11.86	3.50
8.55	-11.85	3.55
9.29	-11.89	4.12
8.59	-11.89	4.15
7.86	-11.79	4.16
7.27	-11.85	4.25
7.25	-11.76	-0.50
9.19	-11.80	-0.42
7.26	-11.77	0.01
7.27	-11.77	0.51
9.23	-11.83	0.68
7.24	-11.71	1.02
9.26	-11.86	1.23
8.55	-11.81	1.33
7.29	-11.78	1.53
9.29	-11.89	1.79
8.56	-11.81	1.87
7.89	-11.77	1.95
9.31	-11.88	2.92
8.59	-11.83	2.98
9.31	-11.87	3.51
8.62	-11.87	3.56
9.37	-11.92	4.14
8.63	-11.86	4.15
7.90	-11.77	4.17
7.30	-11.83	4.25
7.29	-11.75	-0.50
9.27	-11.83	-0.42
7.30	-11.74	0.01
9.29	-11.84	0.13
7.30	-11.75	0.51
9.28	-11.82	0.68
7.33	-11.78	1.02
9.31	-11.86	1.23
8.60	-11.80	1.33
7.33	-11.77	1.53
9.33	-11.87	1.79
8.61	-11.80	1.87
7.94	-11.77	1.96
9.35	-11.86	2.93
8.66	-11.86	2.99
9.39	-11.89	3.52
8.67	-11.86	3.57
9.43	-11.92	4.15
8.68	-11.85	4.16
7.98	-11.82	4.19
7.35	-11.82	4.25
7.32	-11.71	-0.50
7.33	-11.73	0.01
9.34	-11.82	0.13
9.33	-11.81	0.68
9.40	-11.89	1.24
8.63	-11.77	1.33
7.36	-11.74	1.53
9.37	-11.85	1.79
8.65	-11.79	1.87
8.00	-11.77	1.96
9.41	-11.86	2.93
8.72	-11.86	3.00
9.44	-11.88	3.53
8.75	-11.89	3.58
9.47	-11.89	4.15
8.74	-11.87	4.17
8.05	-11.83	4.20
7.39	-11.80	4.26
9.38	-11.80	0.13
9.43	-11.86	0.68
9.44	-11.86	1.24
8.74	-11.84	1.34
9.46	-11.88	1.80
8.72	-11.81	1.88
8.03	-11.75	1.96
9.47	-11.87	2.94
8.76	-11.85	3.00
9.52	-11.91	3.55
8.78	-11.86	3.58
9.50	-11.86	4.15
8.77	-11.82	4.17
8.10	-11.84	4.22
7.45	-11.81	4.27
9.42	-11.78	0.13
9.50	-11.87	0.69
9.50	-11.86	1.24
8.80	-11.84	1.35
7.44	-11.71	1.53
9.54	-11.91	1.81
8.79	-11.82	1.89
8.08	-11.74	1.97
9.53	-11.86	2.95
8.83	-11.86	3.01
9.55	-11.87	3.54
8.83	-11.85	3.59
9.56	-11.86	4.16
8.89	-11.91	4.21
8.18	-11.86	4.23
7.51	-11.84	4.29
9.51	-11.82	0.13
9.55	-11.87	0.69
9.54	-11.84	1.24
8.84	-11.82	1.35
7.51	-11.73	1.54
9.58	-11.88	1.81
8.84	-11.82	1.89
8.12	-11.72	1.97
9.60	-11.90	2.38
9.61	-11.89	2.96
8.92	-11.90	3.03
9.65	-11.92	3.57
8.91	-11.87	3.60
9.61	-11.84	4.16
8.93	-11.89	4.21
8.21	-11.84	4.23
7.53	-11.78	4.27
9.58	-11.83	0.13
7.63	-11.86	0.52
9.62	-11.88	0.69
9.64	-11.89	1.25
8.87	-11.79	1.35
9.62	-11.85	1.81
8.90	-11.81	1.90
9.66	-11.89	2.39
9.65	-11.86	2.96
8.97	-11.89	3.03
9.70	-11.91	3.57
8.95	-11.86	3.61
9.68	-11.85	4.18
9.01	-11.92	4.23
8.28	-11.86	4.25
7.61	-11.83	4.30
9.62	-11.80	0.13
7.67	-11.84	0.52
9.67	-11.87	0.69
9.72	-11.91	1.26
8.90	-11.75	1.34
8.25	-11.76	1.45
9.70	-11.88	1.82
9.71	-11.88	2.39
9.72	-11.88	2.97
9.00	-11.86	3.03
9.75	-11.90	3.58
9.02	-11.88	3.62
9.80	-11.92	4.21
9.06	-11.91	4.24
8.32	-11.84	4.25
7.63	-11.78	4.29
8.31	-11.81	-0.65
9.70	-11.83	0.13
7.71	-11.83	0.52
9.71	-11.84	0.69
8.31	-11.78	0.93
9.77	-11.90	1.26
9.02	-11.83	1.36
8.33	-11.81	1.45
9.78	-11.91	1.83
9.05	-11.86	1.91
9.77	-11.87	2.40
9.79	-11.88	2.98
9.05	-11.85	3.04
9.83	-11.91	3.59
9.05	-11.83	3.61
9.81	-11.87	4.20
9.10	-11.88	4.24
8.38	-11.84	4.26
7.69	-11.79	4.30
8.35	-11.78	-0.65
8.37	-11.80	-0.13
9.74	-11.80	0.13
7.76	-11.83	0.53
9.77	-11.84	0.69
8.35	-11.76	0.93
9.82	-11.89	1.26
9.09	-11.85	1.36
8.38	-11.80	1.46
9.84	-11.90	1.83
9.11	-11.87	1.92
9.82	-11.87	2.40
9.88	-11.92	3.00
9.12	-11.86	3.05
9.88	-11.90	3.60
9.12	-11.85	3.63
9.91	-11.91	4.23
9.14	-11.87	4.24
8.44	-11.86	4.28
7.73	-11.78	4.31
8.40	-11.78	-0.66
8.41	-11.78	-0.13
9.80	-11.80	0.13
7.81	-11.83	0.53
9.87	-11.88	0.70
8.40	-11.75	0.93
9.88	-11.89	1.26
9.14	-11.84	1.37
8.45	-11.82	1.46
9.90	-11.90	1.84
9.15	-11.85	1.92
9.87	-11.85	2.40
9.89	-11.85	2.99
9.14	-11.81	3.04
9.93	-11.89	3.60
9.18	-11.86	3.64
9.96	-11.89	4.23
9.20	-11.86	4.25
8.49	-11.85	4.28
7.77	-11.76	4.31
8.44	-11.76	-0.66
9.90	-11.86	0.13
7.86	-11.82	0.53
9.92	-11.88	0.70
9.15	-11.79	0.82
8.44	-11.73	0.93
9.92	-11.86	1.26
9.21	-11.85	1.37
8.51	-11.83	1.47
9.96	-11.89	1.84
9.21	-11.85	1.92
9.92	-11.83	2.41
10.02	-11.93	3.02
9.24	-11.87	3.06
10.03	-11.93	3.62
9.26	-11.89	3.66
8.52	-11.82	3.69
10.01	-11.88	4.24
9.28	-11.89	4.27
8.55	-11.86	4.30
7.82	-11.76	4.32
9.22	-11.82	-0.27
9.96	-11.85	0.13
9.99	-11.89	0.70
9.25	-11.84	0.82
8.53	-11.78	0.93
10.00	-11.88	1.27
9.26	-11.84	1.37
8.55	-11.80	1.47
10.01	-11.88	1.84
9.29	-11.87	1.93
10.01	-11.87	2.42
10.04	-11.89	3.02
9.31	-11.88	3.07
8.55	-11.79	3.11
10.07	-11.91	3.63
9.31	-11.88	3.66
8.61	-11.86	3.71
10.06	-11.87	4.24
9.31	-11.85	4.27
8.61	-11.87	4.31
7.91	-11.82	4.35
10.03	-11.85	0.13
10.08	-11.91	0.71
9.31	-11.84	0.82
8.59	-11.78	0.94
10.06	-11.88	1.27
9.30	-11.82	1.37
8.59	-11.79	1.47
10.10	-11.92	1.85
9.35	-11.88	1.94
10.07	-11.87	2.43
10.11	-11.90	3.03
9.35	-11.86	3.07
8.68	-11.89	3.15
10.13	-11.90	3.63
9.39	-11.90	3.68
8.65	-11.84	3.71
10.13	-11.88	4.26
9.36	-11.84	4.27
8.65	-11.83	4.31
7.97	-11.82	4.36
10.07	-11.83	0.13
10.13	-11.90	0.71
9.35	-11.82	0.82
8.63	-11.77	0.94
10.16	-11.92	1.28
9.39	-11.86	1.38
8.69	-11.85	1.48
10.15	-11.90	1.86
9.42	-11.89	1.94
10.11	-11.84	2.43
10.19	-11.92	3.04
9.41	-11.85	3.08
8.72	-11.86	3.15
10.18	-11.89	3.64
9.43	-11.88	3.68
8.70	-11.83	3.72
10.19	-11.87	4.27
9.43	-11.86	4.29
8.74	-11.88	4.33
8.03	-11.83	4.37
9.34	-11.76	-0.83
10.13	-11.83	0.14
10.19	-11.89	0.71
9.40	-11.81	0.83
10.20	-11.90	1.28
9.43	-11.84	1.38
8.74	-11.83	1.48
10.20	-11.89	1.86
9.47	-11.87	1.95
10.18	-11.84	2.44
9.51	-11.91	2.52
10.23	-11.88	3.04
9.48	-11.88	3.09
8.77	-11.86	3.15
10.25	-11.89	3.65
9.48	-11.87	3.69
8.77	-11.85	3.73
10.25	-11.87	4.28
9.48	-11.84	4.29
8.80	-11.89	4.35
8.09	-11.85	4.39
9.43	-11.80	-0.83
10.24	-11.88	0.71
9.46	-11.81	0.83
10.28	-11.92	1.29
9.48	-11.83	1.38
8.78	-11.82	1.48
10.26	-11.88	1.86
9.54	-11.89	1.95
10.31	-11.93	2.46
9.55	-11.89	2.53
10.31	-11.91	3.05
9.55	-11.88	3.10
8.84	-11.88	3.16
10.29	-11.87	3.65
9.55	-11.87	3.70
8.81	-11.83	3.73
10.39	-11.96	4.32
9.57	-11.88	4.32
8.87	-11.91	4.36
8.15	-11.85	4.40
9.47	-11.78	-0.83
10.31	-11.89	0.71
9.53	-11.82	0.83
10.34	-11.92	1.29
9.58	-11.87	1.39
8.84	-11.81	1.48
10.34	-11.90	1.87
9.59	-11.87	1.96
10.37	-11.92	2.46
9.60	-11.88	2.53
10.42	-11.96	3.07
9.62	-11.89	3.11
8.90	-11.88	3.17
10.40	-11.92	3.68
9.58	-11.84	3.70
8.91	-11.88	3.76
10.37	-11.86	4.30
9.58	-11.82	4.31
8.91	-11.88	4.36
8.18	-11.82	4.39
9.52	-11.77	-0.83
10.36	-11.87	0.71
9.60	-11.83	0.83
10.40	-11.91	1.29
9.62	-11.85	1.39
8.86	-11.77	1.48
10.39	-11.88	1.87
9.63	-11.85	1.96
10.42	-11.90	2.47
9.65	-11.86	2.53
10.47	-11.95	3.08
9.68	-11.89	3.12
8.96	-11.89	3.18
10.47	-11.92	3.69
9.70	-11.92	3.73
8.98	-11.90	3.77
10.53	-11.96	4.35
9.69	-11.89	4.34
8.96	-11.88	4.37
8.24	-11.82	4.40
9.60	-11.79	-0.84
9.66	-11.84	0.28
10.41	-11.86	0.71
9.67	-11.85	0.84
10.44	-11.88	1.29
9.68	-11.85	1.40
8.91	-11.75	1.48
10.46	-11.88	1.88
9.71	-11.88	1.97
10.48	-11.89	2.47
9.70	-11.85	2.54
10.51	-11.92	3.08
9.75	-11.90	3.13
9.00	-11.86	3.18
10.57	-11.97	3.71
9.75	-11.89	3.73
9.01	-11.86	3.77
10.59	-11.96	4.36
9.77	-11.91	4.36
9.01	-11.86	4.38
8.28	-11.81	4.41
9.65	-11.78	-0.84
8.32	-11.80	0.01
9.71	-11.83	0.28
8.37	-11.86	0.54
10.53	-11.91	0.72
9.75	-11.87	0.84
8.33	-11.79	1.06
10.52	-11.89	1.30
9.73	-11.84	1.40
9.00	-11.80	1.49
8.35	-11.81	1.60
10.50	-11.86	1.88
9.78	-11.88	1.97
10.55	-11.90	2.48
9.76	-11.85	2.54
10.55	-11.89	3.08
9.76	-11.84	3.12
9.05	-11.84	3.19
10.62	-11.94	3.72
9.78	-11.86	3.73
9.06	-11.86	3.78
10.62	-11.93	4.36
9.84	-11.91	4.38
9.08	-11.89	4.40
8.34	-11.82	4.42
9.75	-11.83	-0.84
8.36	-11.80	-0.52
8.35	-11.77	0.01
9.76	-11.81	0.28
10.57	-11.89	0.72
9.81	-11.87	0.84
8.37	-11.77	1.07
10.56	-11.87	1.30
9.78	-11.83	1.40
9.07	-11.82	1.50
8.40	-11.81	1.60
10.59	-11.89	1.89
9.83	-11.88	1.98
10.61	-11.90	2.49
9.82	-11.85	2.55
10.62	-11.89	3.09
9.87	-11.91	3.15
9.13	-11.87	3.20
10.70	-11.97	3.73
9.89	-11.91	3.76
9.14	-11.88	3.79
10.70	-11.94	4.37
9.89	-11.90	4.38
9.14	-11.88	4.40
8.38	-11.80	4.42
9.79	-11.81	-0.84
8.40	-11.77	-0.52
9.81	-11.80	0.28
9.10	-11.80	0.41
9.87	-11.87	0.84
8.45	-11.81	1.07
10.63	-11.87	1.30
9.90	-11.89	1.41
9.13	-11.82	1.50
8.45	-11.80	1.61
10.65	-11.88	1.89
9.91	-11.90	1.98
9.14	-11.83	2.06
10.72	-11.95	2.50
9.89	-11.86	2.56
10.69	-11.89	3.10
9.95	-11.93	3.16
9.17	-11.86	3.21
10.75	-11.94	3.74
9.93	-11.90	3.76
9.17	-11.85	3.79
10.75	-11.91	4.38
9.97	-11.92	4.40
9.18	-11.87	4.41
8.45	-11.81	4.44
9.85	-11.80	-0.85
9.91	-11.85	0.28
9.14	-11.78	0.41
9.94	-11.88	0.85
9.23	-11.88	0.97
8.50	-11.81	1.07
10.71	-11.89	1.31
9.95	-11.87	1.41
9.20	-11.84	1.51
8.50	-11.79	1.61
10.73	-11.90	1.90
9.96	-11.89	1.99
9.22	-11.85	2.07
10.76	-11.91	2.50
9.93	-11.83	2.56
8.51	-11.81	2.70
10.75	-11.89	3.11
10.00	-11.91	3.17
9.23	-11.86	3.21
10.80	-11.93	3.74
9.99	-11.89	3.77
9.24	-11.86	3.80
8.46	-11.75	3.82
10.84	-11.94	4.40
10.03	-11.92	4.41
9.22	-11.84	4.41
8.49	-11.79	4.44
9.90	-11.79	-0.85
9.25	-11.85	-0.13
9.98	-11.86	0.28
9.19	-11.77	0.41
10.04	-11.92	0.85
9.31	-11.91	0.97
8.55	-11.80	1.07
10.80	-11.91	1.31
9.98	-11.84	1.41
9.26	-11.83	1.51
8.54	-11.77	1.61
10.80	-11.90	1.91
10.01	-11.87	1.99
9.32	-11.91	2.08
10.81	-11.90	2.51
10.00	-11.84	2.57
8.56	-11.80	2.71
10.83	-11.90	3.12
10.07	-11.92	3.18
9.30	-11.87	3.22
8.62	-11.88	3.29
10.88	-11.94	3.76
10.04	-11.87	3.77
9.30	-11.86	3.81
8.58	-11.84	3.86
10.91	-11.95	4.42
10.08	-11.90	4.42
9.27	-11.83	4.42
8.56	-11.82	4.46
10.07	-11.89	0.28
9.30	-11.83	0.41
10.10	-11.92	0.85
9.33	-11.86	0.97
8.60	-11.79	1.08
10.85	-11.90	1.32
10.07	-11.87	1.42
9.31	-11.83	1.52
8.64	-11.84	1.62
10.89	-11.92	1.91
10.04	-11.83	1.99
9.36	-11.89	2.09
10.89	-11.91	2.52
10.09	-11.88	2.58
8.65	-11.85	2.72
10.89	-11.90	3.13
10.16	-11.95	3.19
9.35	-11.86	3.23
8.67	-11.88	3.30
10.96	-11.96	3.77
10.16	-11.94	3.80
9.35	-11.85	3.82
8.64	-11.84	3.87
10.91	-11.87	4.40
10.12	-11.88	4.42
9.30	-11.79	4.41
8.66	-11.88	4.49
9.32	-11.81	-0.68
10.06	-11.81	0.28
9.36	-11.83	0.42
10.14	-11.89	0.85
9.43	-11.91	0.98
8.64	-11.77	1.08
10.91	-11.88	1.32
10.13	-11.88	1.42
9.37	-11.83	1.52
8.69	-11.83	1.62
10.94	-11.91	1.92
10.15	-11.89	2.00
9.41	-11.88	2.09
10.98	-11.94	2.53
10.15	-11.87	2.59
8.70	-11.84	2.73
11.01	-11.95	3.15
10.17	-11.89	3.19
9.39	-11.84	3.23
8.71	-11.86	3.30
10.98	-11.90	3.76
10.16	-11.87	3.79
9.45	-11.90	3.84
8.68	-11.83	3.87
11.00	-11.90	4.42
10.20	-11.90	4.44
9.43	-11.88	4.46
8.77	-11.95	4.53
9.38	-11.80	-0.68
10.16	-11.85	0.28
9.41	-11.82	0.42
10.19	-11.87	0.86
9.42	-11.83	0.97
10.98	-11.89	1.32
10.20	-11.88	1.43
9.44	-11.85	1.53
8.75	-11.83	1.63
11.00	-11.90	1.92
10.20	-11.87	2.01
9.47	-11.87	2.09
11.03	-11.92	2.53
10.24	-11.90	2.60
8.74	-11.82	2.73
11.07	-11.94	3.15
10.25	-11.91	3.20
9.50	-11.90	3.25
8.75	-11.84	3.30
11.04	-11.90	3.77
10.29	-11.95	3.83
9.50	-11.90	3.85
8.78	-11.88	3.90
11.09	-11.93	4.44
10.27	-11.90	4.45
9.49	-11.88	4.47
8.81	-11.93	4.53
9.42	-11.77	-0.68
10.21	-11.83	0.28
9.48	-11.83	0.42
10.28	-11.90	0.86
9.49	-11.83	0.97
11.02	-11.86	1.32
10.29	-11.91	1.44
9.53	-11.88	1.53
8.78	-11.80	1.63
11.07	-11.90	1.93
10.27	-11.88	2.01
9.53	-11.87	2.10
11.08	-11.90	2.54
10.33	-11.93	2.61
8.77	-11.79	2.73
11.12	-11.93	3.16
10.30	-11.90	3.20
9.54	-11.88	3.26
8.80	-11.82	3.30
11.17	-11.97	3.81
10.33	-11.92	3.83
9.54	-11.87	3.85
8.83	-11.87	3.90
11.19	-11.96	4.47
10.39	-11.97	4.49
9.59	-11.93	4.50
8.83	-11.88	4.52
9.55	-11.84	0.42
10.32	-11.88	0.86
9.59	-11.89	0.98
11.14	-11.91	1.33
10.35	-11.90	1.44
9.59	-11.88	1.54
8.85	-11.81	1.63
11.14	-11.91	1.93
10.36	-11.91	2.02
9.59	-11.87	2.10
11.15	-11.90	2.54
10.38	-11.92	2.62
8.84	-11.81	2.74
11.24	-11.98	3.18
10.36	-11.89	3.21
9.63	-11.92	3.27
8.91	-11.90	3.33
11.24	-11.96	3.82
10.39	-11.92	3.84
9.60	-11.87	3.86
8.88	-11.87	3.91
11.29	-11.99	4.49
10.45	-11.96	4.50
9.64	-11.92	4.50
8.87	-11.86	4.53
9.56	-11.80	-0.69
10.41	-11.91	0.87
9.66	-11.90	0.98
11.18	-11.89	1.33
10.38	-11.87	1.44
9.64	-11.87	1.54
8.90	-11.81	1.64
11.27	-11.96	1.95
10.38	-11.86	2.02
9.67	-11.90	2.11
11.20	-11.88	2.55
10.48	-11.95	2.63
9.66	-11.88	2.69
8.97	-11.90	2.76
11.28	-11.95	3.19
10.42	-11.89	3.22
9.71	-11.93	3.29
8.96	-11.89	3.34
11.33	-11.98	3.83
10.47	-11.94	3.85
9.69	-11.91	3.89
8.95	-11.89	3.93
11.39	-12.02	4.52
10.49	-11.94	4.50
9.72	-11.94	4.52
8.94	-11.87	4.54
9.68	-11.86	0.42
10.46	-11.90	0.87
9.70	-11.87	0.98
11.21	-11.84	1.33
10.44	-11.86	1.44
9.69	-11.86	1.54
8.95	-11.80	1.64
11.32	-11.94	1.95
10.43	-11.85	2.02
9.71	-11.88	2.12
11.30	-11.92	2.56
10.47	-11.88	2.62
9.69	-11.84	2.69
9.00	-11.87	2.76
11.33	-11.93	3.19
10.47	-11.87	3.22
9.77	-11.93	3.30
8.99	-11.85	3.34
11.38	-11.97	3.84
10.52	-11.91	3.86
9.73	-11.88	3.88
8.98	-11.84	3.92
11.45	-12.01	4.53
10.55	-11.94	4.51
9.76	-11.92	4.53
8.99	-11.87	4.55
9.66	-11.78	-0.69
9.72	-11.83	0.42
10.52	-11.89	0.87
9.77	-11.88	0.99
10.51	-11.87	1.45
9.74	-11.84	1.54
9.00	-11.79	1.64
11.36	-11.92	1.95
10.50	-11.85	2.03
9.77	-11.87	2.12
11.36	-11.90	2.57
10.58	-11.93	2.64
9.77	-11.86	2.70
9.10	-11.92	2.78
11.45	-11.98	3.21
10.55	-11.89	3.24
9.82	-11.92	3.30
9.07	-11.88	3.35
11.44	-11.95	3.85
10.57	-11.90	3.86
9.81	-11.91	3.90
9.05	-11.87	3.94
11.49	-11.98	4.53
10.59	-11.90	4.51
9.81	-11.91	4.53
9.04	-11.86	4.56
9.73	-11.79	-0.69
9.84	-11.90	0.43
10.58	-11.88	0.87
9.81	-11.86	0.99
10.65	-11.95	1.46
9.84	-11.89	1.55
9.10	-11.85	1.65
11.47	-11.95	1.96
10.58	-11.87	2.04
9.81	-11.84	2.12
11.45	-11.92	2.58
10.64	-11.92	2.65
9.81	-11.84	2.70
9.12	-11.87	2.78
11.50	-11.96	3.21
10.65	-11.92	3.25
9.89	-11.93	3.31
9.12	-11.87	3.36
11.52	-11.97	3.86
10.65	-11.92	3.88
9.87	-11.90	3.91
9.12	-11.87	3.95
11.56	-11.98	4.54
10.70	-11.95	4.54
9.87	-11.90	4.54
9.08	-11.83	4.56
9.81	-11.81	-0.70
9.85	-11.85	0.43
9.14	-11.84	0.56
10.64	-11.87	0.87
9.90	-11.90	0.99
10.66	-11.89	1.46
9.87	-11.85	1.55
9.14	-11.82	1.65
11.54	-11.96	1.97
9.91	-11.89	2.13
11.53	-11.93	2.59
10.68	-11.89	2.65
9.87	-11.84	2.71
9.17	-11.87	2.78
11.56	-11.95	3.22
10.68	-11.89	3.25
9.94	-11.92	3.32
9.17	-11.86	3.36
11.59	-11.96	3.87
10.71	-11.91	3.89
9.94	-11.91	3.92
9.20	-11.90	3.97
11.60	-11.94	4.54
10.77	-11.96	4.56
9.91	-11.87	4.54
9.13	-11.83	4.57
9.86	-11.80	-0.70
9.86	-11.79	-0.14
9.95	-11.89	0.43
9.17	-11.80	0.56
10.70	-11.86	0.87
9.96	-11.89	1.00
10.70	-11.86	1.46
9.94	-11.86	1.56
9.21	-11.83	1.66
11.63	-11.98	1.98
10.76	-11.91	2.06
9.96	-11.87	2.14
11.58	-11.91	2.59
10.74	-11.88	2.65
9.92	-11.83	2.71
9.23	-11.86	2.79
11.61	-11.92	3.22
10.79	-11.93	3.27
9.99	-11.90	3.32
9.24	-11.87	3.37
11.63	-11.93	3.88
10.77	-11.91	3.90
9.98	-11.89	3.93
9.22	-11.86	3.96
11.63	-11.90	4.54
10.81	-11.93	4.56
10.01	-11.92	4.57
9.23	-11.88	4.60
9.93	-11.80	-0.70
9.98	-11.85	0.43
9.28	-11.86	0.56
10.74	-11.84	0.87
10.00	-11.86	1.00
9.30	-11.88	1.11
10.78	-11.88	1.46
9.98	-11.84	1.56
9.26	-11.83	1.66
11.68	-11.96	1.98
10.80	-11.89	2.06
10.05	-11.90	2.15
11.65	-11.92	2.60
10.79	-11.87	2.66
10.00	-11.84	2.72
9.29	-11.86	2.80
11.72	-11.97	3.25
10.87	-11.95	3.29
10.05	-11.91	3.33
9.29	-11.86	3.38
11.74	-11.97	3.90
10.83	-11.89	3.90
10.08	-11.93	3.95
9.30	-11.88	3.98
11.73	-11.93	4.56
10.87	-11.92	4.57
10.06	-11.90	4.58
9.22	-11.79	4.58
10.05	-11.86	0.43
9.34	-11.87	0.56
10.08	-11.88	1.00
9.35	-11.88	1.12
10.83	-11.86	1.47
10.10	-11.90	1.57
9.34	-11.85	1.67
11.77	-11.97	1.99
10.91	-11.93	2.07
10.09	-11.89	2.15
11.80	-11.99	2.62
10.87	-11.88	2.67
10.08	-11.86	2.73
9.34	-11.86	2.80
11.78	-11.96	3.25
10.94	-11.95	3.30
10.10	-11.89	3.33
9.33	-11.84	3.38
11.78	-11.93	3.90
10.94	-11.94	3.93
10.15	-11.94	3.97
9.39	-11.92	4.00
11.88	-12.01	4.61
10.91	-11.89	4.57
10.12	-11.90	4.59
9.35	-11.88	4.62
10.12	-11.86	0.43
9.38	-11.85	0.56
10.16	-11.90	1.00
9.41	-11.88	1.12
10.88	-11.84	1.47
10.14	-11.88	1.57
9.38	-11.82	1.67
11.81	-11.94	1.99
10.97	-11.93	2.08
10.14	-11.87	2.15
11.88	-12.00	2.63
10.95	-11.90	2.68
10.19	-11.92	2.75
9.40	-11.85	2.81
11.89	-11.99	3.27
10.99	-11.93	3.30
10.21	-11.94	3.36
9.39	-11.84	3.39
11.83	-11.91	3.90
11.05	-11.99	3.96
10.19	-11.92	3.97
9.45	-11.92	4.01
12.00	-12.06	4.64
10.98	-11.89	4.58
10.19	-11.91	4.61
9.41	-11.88	4.63
10.16	-11.84	0.43
9.43	-11.84	0.56
10.22	-11.90	1.01
9.47	-11.88	1.12
10.97	-11.87	1.47
10.23	-11.90	1.58
9.49	-11.89	1.68
11.86	-11.92	1.99
11.03	-11.92	2.08
10.19	-11.85	2.15
9.49	-11.89	2.25
11.91	-11.96	2.63
11.03	-11.90	2.69
10.22	-11.89	2.75
9.45	-11.84	2.81
11.97	-12.00	3.28
11.07	-11.95	3.32
10.28	-11.94	3.37
9.50	-11.91	3.42
11.96	-11.97	3.93
11.09	-11.96	3.96
10.27	-11.93	3.98
9.50	-11.91	4.02
11.14	-11.99	4.64
10.31	-11.97	4.64
9.45	-11.86	4.64
10.21	-11.83	0.43
9.48	-11.83	0.56
10.25	-11.86	1.01
9.55	-11.90	1.13
11.07	-11.90	1.48
10.25	-11.86	1.58
9.56	-11.90	1.69
11.88	-11.87	1.99
11.11	-11.93	2.09
10.27	-11.87	2.16
9.54	-11.88	2.25
11.99	-11.96	2.64
11.09	-11.90	2.69
10.27	-11.86	2.75
9.51	-11.84	2.82
12.03	-11.98	3.29
11.16	-11.97	3.33
10.31	-11.91	3.37
9.53	-11.87	3.41
12.03	-11.97	3.95
11.20	-12.00	3.98
10.31	-11.90	3.98
9.55	-11.90	4.03
12.06	-11.97	4.64
11.21	-11.99	4.65
10.32	-11.92	4.63
9.58	-11.95	4.68
10.25	-11.81	0.43
9.58	-11.87	0.57
10.31	-11.86	1.01
9.62	-11.91	1.13
11.12	-11.88	1.48
10.33	-11.88	1.58
9.61	-11.89	1.69
11.20	-11.96	2.10
10.36	-11.90	2.17
9.60	-11.88	2.26
12.06	-11.96	2.65
11.13	-11.87	2.70
10.36	-11.90	2.77
9.57	-11.84	2.82
12.10	-11.98	3.30
11.20	-11.93	3.33
10.36	-11.89	3.37
9.60	-11.89	3.43
12.08	-11.94	3.95
11.25	-11.98	3.99
10.40	-11.93	4.00
9.61	-11.90	4.03
12.14	-11.97	4.65
11.31	-12.02	4.67
10.38	-11.91	4.64
9.65	-11.95	4.69
9.63	-11.85	0.57
10.40	-11.88	1.01
9.66	-11.88	1.13
11.24	-11.93	1.50
10.38	-11.86	1.59
9.66	-11.88	1.69
11.27	-11.95	2.11
10.40	-11.87	2.18
9.65	-11.86	2.26
12.10	-11.92	2.65
11.23	-11.90	2.71
10.42	-11.89	2.77
9.67	-11.89	2.84
12.16	-11.96	3.31
11.27	-11.93	3.34
10.40	-11.87	3.37
9.68	-11.91	3.44
12.18	-11.97	3.97
11.32	-11.98	4.00
10.45	-11.92	4.01
9.66	-11.88	4.04
12.24	-12.01	4.68
11.34	-11.98	4.67
10.44	-11.90	4.65
9.63	-11.86	4.67
9.71	-11.88	0.57
10.45	-11.87	1.01
9.71	-11.88	1.13
11.29	-11.91	1.50
10.45	-11.86	1.59
9.70	-11.85	1.69
11.36	-11.98	2.12
10.44	-11.85	2.18
9.74	-11.90	2.27
12.17	-11.92	2.66
11.34	-11.94	2.73
10.54	-11.95	2.80
9.72	-11.87	2.85
12.29	-12.02	3.33
11.37	-11.97	3.36
10.56	-11.97	3.41
9.76	-11.92	3.45
12.27	-11.98	3.99
11.37	-11.96	4.00
10.50	-11.90	4.01
9.73	-11.90	4.06
12.33	-12.01	4.70
11.38	-11.96	4.67
10.52	-11.92	4.67
9.73	-11.91	4.70
9.75	-11.86	0.57
10.55	-11.91	1.02
9.78	-11.88	1.14
11.35	-11.90	1.50
10.53	-11.88	1.60
9.79	-11.89	1.70
11.36	-11.91	2.11
10.48	-11.82	2.18
9.76	-11.85	2.27
12.24	-11.92	2.66
11.38	-11.91	2.73
10.57	-11.91	2.79
9.77	-11.86	2.85
12.37	-12.02	3.34
11.40	-11.92	3.36
10.60	-11.95	3.41
9.81	-11.91	3.46
12.37	-12.00	4.01
11.43	-11.95	4.01
10.57	-11.90	4.03
