X	Y	Z
-2.04	-4.29	-0.66
-2.03	-3.90	-0.56
-2.08	-3.66	-0.50
-2.20	-3.56	-0.46
-2.05	-4.32	-0.48
-2.06	-3.97	-0.41
-2.10	-3.70	-0.35
-3.16	13.30	0.25
-3.17	11.46	0.10
-2.23	-3.62	-0.31
-5.50	27.65	-0.25
-3.18	11.55	-0.33
-2.02	-4.26	-0.30
-2.01	-3.87	-0.24
-2.10	-3.70	-0.19
-2.19	-3.55	-0.15
-1.97	-4.16	-0.13
-2.02	-3.89	-0.08
-2.17	-3.83	-0.04
5.36	-10.86	2.25
7.48	-11.66	3.22
4.52	-11.10	-0.87
4.48	-9.96	-0.90
6.30	-11.64	3.35
-2.17	-4.58	0.23
-2.90	-5.13	0.59
-3.16	13.51	0.25
-3.21	11.76	0.11
-3.23	-5.26	0.68
-5.41	27.61	-0.25
-3.17	11.63	-0.34
-2.54	-5.38	0.71
6.74	-3.37	0.07
7.13	-4.24	-0.07
5.18	-11.52	3.71
5.76	-11.63	3.68
6.32	-11.64	3.61
6.78	-4.04	-0.36
6.75	-3.70	-0.42
7.44	-3.73	-0.54
6.80	-4.05	-0.65
6.78	-3.71	-0.71
6.74	-3.39	0.62
6.75	-4.38	0.59
6.71	-3.69	0.42
-3.15	13.65	0.25
-3.23	11.99	0.11
6.80	-3.43	0.07
-5.33	27.65	-0.25
-3.15	11.73	-0.34
7.13	-4.27	-0.07
5.74	-11.62	3.42
5.22	-11.61	3.22
5.76	-11.63	3.15
6.79	-4.07	-0.36
-2.01	-4.25	-0.83
-2.04	-3.93	-0.74
-2.15	-3.80	-0.68
-2.19	-3.57	-0.61
-2.04	-4.32	-0.66
-2.02	-3.91	-0.57
-2.08	-3.68	-0.50
-2.21	-3.60	-0.46
-2.05	-4.34	-0.49
-3.16	13.86	0.26
-3.18	11.96	0.11
-2.04	-3.96	-0.41
-5.24	27.63	-0.25
-3.23	14.18	-0.27
-3.17	11.94	-0.34
-2.09	-3.71	-0.35
-2.21	-3.61	-0.31
-2.02	-4.28	-0.31
-2.00	-3.88	-0.24
-2.10	-3.73	-0.19
-2.19	-3.58	-0.15
-1.98	-4.21	-0.13
-2.02	-3.91	-0.08
-2.14	-3.81	-0.04
6.30	-11.63	3.08
7.48	-11.63	3.77
6.90	-11.67	3.84
5.31	-10.74	2.44
5.89	-10.90	2.40
-2.15	-4.59	0.23
-2.80	-4.99	0.58
-3.15	14.01	0.26
-3.13	11.91	0.11
-3.31	-5.43	0.70
-5.16	27.70	-0.25
-3.19	14.22	-0.27
-2.53	-5.40	0.71
6.79	-3.74	-0.43
8.27	-2.96	-0.40
4.39	-10.82	2.17
4.86	-10.83	2.08
14.76	-4.68	-0.28
8.64	-3.09	-0.08
15.16	-4.20	0.14
8.65	-3.09	0.25
8.70	-3.10	0.59
8.66	-3.09	0.93
7.78	-3.10	1.24
7.94	-3.16	1.59
7.49	-3.78	-0.54
6.81	-4.09	-0.65
6.77	-3.74	-0.71
18.52	-12.09	4.96
-3.14	14.21	0.26
-3.18	12.26	0.11
6.77	-3.43	0.62
-5.07	27.67	-0.25
-3.14	14.21	-0.27
6.73	-4.40	0.59
6.76	-3.43	0.07
-2.00	-4.26	-0.83
-2.02	-3.94	-0.74
-2.14	-3.82	-0.68
-2.18	-3.57	-0.61
-2.09	-4.47	-0.68
-2.02	-3.93	-0.57
-2.05	-3.66	-0.50
-2.19	-3.59	-0.46
-2.04	-4.37	-0.49
-2.03	-3.97	-0.41
-2.08	-3.72	-0.35
-2.20	-3.62	-0.31
-2.02	-4.32	-0.31
-2.00	-3.91	-0.24
-3.19	12.43	0.11
-2.09	-3.74	-0.19
-4.98	27.67	-0.25
-3.15	14.45	-0.27
-2.18	-3.58	-0.15
-1.97	-4.22	-0.13
-2.01	-3.92	-0.08
-2.12	-3.80	-0.04
5.33	-10.79	1.99
6.01	-11.12	1.97
5.25	-9.69	-0.91
5.04	-11.25	0.79
4.85	-11.98	0.48
-2.16	-4.65	0.23
-2.82	-5.06	0.58
-3.17	-5.23	0.68
-2.51	-5.40	0.71
6.75	-4.42	0.01
7.11	-4.29	-0.07
5.02	-11.21	0.34
-3.14	14.61	0.27
-3.16	12.49	0.11
14.67	5.23	-0.43
-4.91	27.75	-0.25
-3.12	14.53	-0.27
5.25	-10.59	-0.86
6.71	-4.05	-0.35
6.80	-3.77	-0.43
7.66	-3.90	-0.55
6.80	-4.11	-0.65
6.74	-3.75	-0.71
20.61	-12.47	6.09
6.82	-4.13	0.80
6.61	-3.38	0.61
6.73	-4.43	0.59
8.52	-3.02	-0.41
26.58	7.36	-0.25
29.81	7.10	0.02
14.75	-4.63	-0.28
8.65	-3.06	-0.08
-1.99	-4.30	-0.83
-3.18	12.73	0.11
-2.02	-3.96	-0.74
-4.82	27.73	-0.25
-4.94	23.38	-0.44
-2.14	-3.84	-0.69
-2.15	-3.55	-0.61
-2.08	-4.48	-0.68
-2.02	-3.97	-0.57
-2.07	-3.72	-0.51
-2.18	-3.60	-0.46
-2.04	-4.41	-0.49
-2.03	-3.99	-0.41
-2.07	-3.73	-0.35
-2.19	-3.62	-0.31
-2.00	-4.31	-0.31
-2.03	-3.99	-0.25
-2.08	-3.74	-0.19
-2.16	-3.58	-0.15
-1.97	-4.26	-0.13
-2.03	-4.00	-0.08
-3.18	12.87	0.12
-2.11	-3.82	-0.04
-4.73	27.73	-0.25
-4.87	23.41	-0.44
30.02	10.72	0.28
27.58	8.75	1.58
28.28	7.85	1.88
24.97	8.94	2.17
-2.14	-4.63	0.23
-3.19	-6.31	0.64
-2.76	-4.99	0.57
-3.15	-5.24	0.68
-2.47	-5.37	0.70
8.68	-3.07	0.25
8.74	-3.09	0.59
8.11	-3.20	1.62
6.75	-3.45	0.07
7.08	-4.30	-0.07
25.88	8.22	2.48
26.55	7.38	2.77
-3.17	13.01	0.12
6.79	-4.13	-0.36
-4.64	27.74	-0.25
-4.80	23.42	-0.44
6.80	-3.80	-0.43
7.92	-4.06	-0.57
6.79	-4.14	-0.65
6.78	-3.80	-0.71
6.77	-3.48	0.62
6.68	-4.08	0.22
6.75	-3.48	0.07
6.96	-4.26	-0.07
26.56	9.52	3.35
25.06	7.97	3.37
6.76	-4.14	-0.36
-2.01	-3.97	-0.74
-2.13	-3.85	-0.69
-2.14	-3.57	-0.61
-2.07	-4.49	-0.68
-2.04	-4.03	-0.58
-3.14	13.08	0.12
-2.06	-3.74	-0.51
-4.57	27.81	-0.25
-4.72	23.38	-0.44
-2.16	-3.59	-0.46
-2.03	-4.42	-0.49
-2.02	-4.00	-0.41
-2.06	-3.74	-0.35
-2.16	-3.61	-0.31
-1.99	-4.33	-0.31
-2.04	-4.04	-0.25
-2.09	-3.79	-0.20
-2.18	-3.64	-0.15
-2.00	-4.35	-0.13
-2.10	-3.82	-0.04
26.19	7.29	3.75
24.76	8.89	4.10
27.46	8.75	4.77
26.80	7.47	4.88
27.22	9.80	5.61
-3.11	-5.21	0.67
-3.16	13.32	0.12
-2.48	-5.43	0.71
-4.43	27.48	-0.25
-4.61	23.24	-0.43
6.81	-3.84	-0.43
7.13	-3.68	-0.52
6.78	-4.16	-0.65
6.76	-3.81	-0.71
18.52	-12.34	5.87
8.56	-3.01	-0.41
26.89	8.58	5.75
4.87	-12.04	0.01
14.73	-4.57	-0.28
8.65	-3.03	-0.08
8.80	-3.09	0.26
8.78	-3.07	0.60
8.17	-3.20	1.63
6.72	-3.48	0.62
-6.79	-11.36	3.49
6.78	-3.52	0.07
6.78	-4.18	-0.07
-5.95	30.41	0.56
-3.16	13.54	0.12
-4.34	27.48	-0.25
-4.58	23.46	-0.44
5.01	-11.21	-0.11
7.32	-11.44	-0.88
-2.10	-4.17	-0.78
-2.13	-3.88	-0.69
-2.15	-3.59	-0.61
-2.05	-4.49	-0.68
-2.03	-4.04	-0.58
-2.07	-3.78	-0.51
-2.15	-3.61	-0.46
-2.03	-4.44	-0.49
-2.03	-4.04	-0.41
-2.05	-3.74	-0.35
-2.16	-3.62	-0.31
-2.00	-4.38	-0.31
-2.04	-4.07	-0.25
-2.06	-3.77	-0.19
-2.15	-3.61	-0.15
-5.89	38.01	1.06
-5.88	30.52	0.56
-3.17	13.75	0.12
-1.99	-4.36	-0.13
-4.26	27.53	-0.25
-4.47	23.24	-0.43
-2.00	-4.01	-0.08
-2.10	-3.84	-0.04
5.01	-11.21	-0.56
26.59	7.22	4.30
28.35	7.66	2.40
4.49	-11.13	-0.87
4.45	-9.98	-0.90
-3.35	-7.38	0.66
-2.83	-5.18	0.59
-3.11	-5.25	0.68
-2.41	-5.32	0.69
29.84	6.89	0.55
6.75	-4.16	-0.36
6.82	-3.87	-0.43
6.88	-3.58	-0.50
6.79	-4.19	-0.65
6.75	-3.84	-0.71
6.77	-3.54	0.62
-5.76	37.92	1.06
-3.16	13.89	0.12
6.72	-4.51	0.60
-4.17	27.53	-0.25
-4.39	23.21	-0.43
6.74	-4.18	-0.07
5.18	-11.61	3.74
5.71	-11.62	3.67
6.28	-11.65	3.61
6.74	-4.18	-0.36
6.79	-3.88	-0.43
11.15	-3.88	-0.53
29.98	8.08	0.27
14.76	-4.53	-0.28
8.66	-3.01	-0.08
9.00	-3.12	0.26
-2.13	-4.27	-0.79
-2.12	-3.88	-0.69
-2.18	-3.68	-0.63
-2.04	-4.50	-0.68
-2.03	-4.09	-0.59
-2.07	-3.81	-0.52
-2.13	-3.60	-0.46
-3.14	14.00	0.12
-2.01	-4.45	-0.50
-4.09	27.53	-0.25
-4.30	23.14	-0.43
-2.03	-4.08	-0.42
-2.06	-3.80	-0.35
-2.12	-3.59	-0.30
-1.99	-4.40	-0.31
-2.04	-4.10	-0.25
-2.06	-3.79	-0.20
-2.15	-3.63	-0.15
-2.01	-4.45	-0.14
-2.02	-4.07	-0.08
-2.09	-3.86	-0.04
29.90	4.64	0.02
5.71	-11.63	3.14
6.26	-11.64	3.07
27.99	5.40	-0.26
-2.58	-5.22	0.53
-2.73	-5.04	0.58
-3.09	-5.25	0.67
-2.43	-5.41	0.70
-10.60	57.52	7.49
-10.58	57.65	3.20
-3.23	14.61	0.13
8.76	-3.03	0.59
-4.01	27.55	-0.25
-4.15	22.74	-0.42
6.82	-3.58	-0.50
6.78	-4.21	-0.66
6.75	-3.86	-0.71
6.77	-3.56	0.63
6.82	-3.60	0.35
6.76	-4.22	-0.07
7.34	-13.54	-0.70
5.27	-10.74	2.43
5.84	-10.88	2.39
6.75	-4.22	-0.36
6.79	-3.91	-0.43
6.81	-3.60	-0.50
6.78	-4.24	-0.66
6.76	-3.90	-0.71
17.82	-12.10	4.83
14.72	-5.07	-0.70
4.35	-10.82	2.16
14.76	-4.48	-0.28
-5.53	30.77	0.56
-3.19	14.66	0.13
-2.05	-4.15	-0.77
-3.92	27.57	-0.25
-4.08	22.74	-0.42
-2.10	-3.88	-0.69
-2.11	-3.58	-0.61
-2.03	-4.51	-0.68
-2.04	-4.14	-0.59
-2.06	-3.81	-0.52
-2.12	-3.60	-0.46
-2.00	-4.46	-0.50
-2.05	-4.15	-0.42
-2.05	-3.79	-0.35
-2.13	-3.62	-0.30
-2.07	-4.62	-0.33
-2.03	-4.13	-0.25
-2.03	-3.77	-0.19
-2.14	-3.64	-0.15
-2.00	-4.45	-0.14
-2.00	-4.07	-0.08
-2.05	-3.81	-0.04
4.82	-10.83	2.08
5.29	-10.78	1.99
-3.50	34.13	1.28
-5.45	30.82	0.57
-3.14	14.65	0.13
5.97	-11.14	1.97
-3.79	27.25	-0.25
-3.99	22.64	-0.42
5.00	-11.24	0.79
-2.07	-4.62	0.23
-2.22	-4.97	0.45
-2.81	-5.23	0.60
-3.06	-5.23	0.67
-2.37	-5.31	0.69
8.67	-2.98	-0.08
15.60	-4.12	0.14
6.81	-3.94	0.14
6.75	-4.24	-0.07
4.81	-12.00	0.48
4.99	-11.24	0.34
14.62	5.26	-0.43
6.87	-4.32	-0.37
6.79	-3.94	-0.43
6.78	-3.61	-0.50
6.74	-4.24	-0.65
6.79	-3.94	-0.72
17.64	-12.07	5.64
-5.35	30.84	0.57
21.07	-12.22	4.96
-3.71	27.27	-0.25
-3.92	22.64	-0.42
6.79	-3.63	0.35
6.73	-4.26	-0.07
6.41	-12.01	0.12
26.68	7.48	-0.25
29.84	7.20	0.02
-2.03	-4.14	-0.77
-2.09	-3.90	-0.69
-2.16	-3.69	-0.63
-2.02	-4.52	-0.69
-2.05	-4.19	-0.60
-2.06	-3.85	-0.52
-2.13	-3.64	-0.46
-2.00	-4.49	-0.50
-2.05	-4.18	-0.43
-2.04	-3.82	-0.36
-2.13	-3.65	-0.31
-2.07	-4.66	-0.33
-2.04	-4.17	-0.26
-2.03	-3.80	-0.20
-2.15	-3.68	-0.15
-2.01	-4.53	-0.14
-3.62	27.27	-0.25
-3.78	22.23	-0.41
-1.98	-4.05	-0.08
-2.05	-3.83	-0.04
63.92	15.45	2.44
27.51	8.82	1.58
28.27	7.94	1.88
24.92	9.01	2.17
26.16	8.40	2.51
-2.21	-5.00	0.45
-2.49	-5.12	0.52
-3.04	-5.24	0.67
-2.40	-5.43	0.70
7.02	-4.45	-0.38
6.78	-3.96	-0.43
6.77	-3.63	-0.50
14.73	-5.02	-0.70
26.64	7.49	2.78
14.80	-4.45	-0.28
14.58	-4.96	-0.14
6.76	-3.95	-0.72
6.71	-3.93	1.00
-6.25	30.54	0.27
6.72	-4.28	-0.07
-3.53	27.23	-0.25
-3.66	21.96	-0.41
25.74	9.32	3.25
25.05	8.05	3.37
25.87	7.28	3.71
6.83	-4.35	-0.37
6.80	-4.00	-0.43
6.77	-3.66	-0.50
6.74	-3.97	-0.72
6.83	-4.73	1.54
6.75	-3.67	0.07
-2.03	-4.18	-0.77
-2.07	-3.89	-0.69
-2.09	-3.60	-0.61
-2.00	-4.53	-0.69
-2.05	-4.21	-0.60
-2.04	-3.83	-0.52
-2.11	-3.63	-0.46
-1.99	-4.50	-0.50
-2.04	-4.19	-0.43
-2.02	-3.81	-0.35
-2.12	-3.66	-0.31
-6.16	30.55	0.27
-2.05	-4.65	-0.33
-2.04	-4.20	-0.26
-3.61	22.03	-0.41
-2.03	-3.82	-0.20
-2.13	-3.69	-0.15
-1.99	-4.51	-0.14
-1.97	-4.06	-0.08
-2.07	-3.90	-0.04
24.70	8.96	4.10
27.09	8.73	4.72
26.78	7.55	4.88
26.96	9.80	5.56
-2.10	-4.78	0.24
-2.71	-5.11	0.58
-3.04	-5.27	0.67
-2.36	-5.38	0.70
6.70	-4.30	-0.07
14.75	-4.98	-0.71
26.89	8.67	5.75
14.82	-4.40	-0.28
14.65	-4.94	-0.14
5.00	-11.28	-0.11
5.47	-11.24	-0.69
-6.04	30.42	0.27
6.48	-11.94	-0.12
6.77	-4.35	-0.36
-3.53	21.97	-0.41
6.84	-4.05	-0.44
6.76	-3.68	-0.50
6.77	-4.02	-0.72
6.75	-3.68	-0.78
17.33	-12.08	4.74
6.73	-3.68	0.07
4.45	-11.14	-0.87
4.43	-10.01	-0.90
7.95	-12.40	0.13
6.77	-4.38	-0.37
-2.03	-4.20	-0.77
-2.07	-3.92	-0.69
-2.08	-3.61	-0.61
-2.00	-4.55	-0.69
-2.04	-4.22	-0.60
-2.05	-3.88	-0.52
-2.10	-3.64	-0.46
-1.98	-4.52	-0.50
-2.04	-4.22	-0.43
-2.02	-3.83	-0.36
-2.11	-3.68	-0.31
-2.79	33.24	1.24
-5.93	30.39	0.27
-2.03	-4.63	-0.33
-2.03	-4.21	-0.26
-3.42	21.71	-0.40
-2.12	-3.70	-0.15
-1.99	-4.55	-0.14
-1.97	-4.09	-0.08
-2.04	-3.87	-0.04
6.62	-11.20	0.24
5.67	-11.62	3.66
6.23	-11.64	3.60
6.48	-11.94	0.37
-2.10	-4.82	0.24
-2.45	-5.12	0.52
-2.98	-5.21	0.66
-2.32	-5.33	0.69
6.78	-4.04	-0.43
6.78	-3.72	-0.50
6.77	-4.04	-0.72
6.77	-3.72	-0.78
14.78	-4.94	-0.71
6.62	-11.20	0.71
8.20	-3.07	0.01
49.02	-12.46	0.44
15.71	-5.24	0.46
-5.58	36.07	0.66
-5.87	30.56	0.27
6.83	-4.79	1.23
6.78	-4.76	0.61
-3.33	21.61	-0.40
6.74	-3.71	0.07
5.66	-11.62	3.14
6.21	-11.63	3.07
5.77	-11.58	1.43
6.76	-4.40	-0.37
6.83	-4.10	-0.44
6.81	-3.76	-0.50
6.76	-4.07	-0.72
-2.04	-4.26	-0.78
-2.06	-3.92	-0.69
-2.12	-3.71	-0.63
-1.99	-4.57	-0.69
-2.03	-4.24	-0.61
-2.04	-3.89	-0.52
-2.09	-3.66	-0.46
-2.03	-4.67	-0.52
-2.08	-4.35	-0.44
-2.06	-3.93	-0.36
-2.11	-3.70	-0.31
-2.01	-4.64	-0.33
-2.02	-4.23	-0.26
-2.00	-3.83	-0.20
-5.76	30.51	0.27
-2.11	-3.71	-0.15
-1.98	-4.57	-0.14
-3.26	21.60	-0.40
-1.97	-4.12	-0.08
-2.04	-3.90	-0.04
6.96	-10.82	2.01
5.22	-10.72	2.43
5.79	-10.86	2.38
4.31	-10.82	2.16
4.78	-10.83	2.08
-2.10	-4.85	0.24
-2.69	-5.16	0.59
-2.98	-5.23	0.67
-2.33	-5.41	0.70
6.80	-3.76	-0.79
6.75	-3.75	0.07
5.25	-10.80	1.99
5.93	-11.15	1.97
6.45	-10.88	2.09
6.78	-4.45	-0.37
6.83	-4.13	-0.44
15.29	-5.06	-0.73
4.96	-11.26	0.79
6.79	-3.78	-0.50
8.23	-3.06	0.01
-5.68	30.61	0.27
51.40	-12.90	0.46
-3.19	21.55	-0.40
6.74	-4.08	-0.72
6.73	-3.75	-0.78
6.83	-4.15	0.14
6.76	-3.78	0.07
4.97	-11.28	0.34
6.37	-12.03	0.12
5.90	-10.84	2.17
-2.04	-4.28	-0.79
-2.04	-3.92	-0.69
-2.14	-3.76	-0.63
-2.03	-4.28	-0.61
-2.03	-3.91	-0.52
-2.07	-3.64	-0.46
-2.04	-4.74	-0.52
-2.06	-4.35	-0.44
-2.05	-3.95	-0.37
-2.09	-3.69	-0.31
-2.00	-4.65	-0.33
-2.01	-4.25	-0.26
-2.01	-3.88	-0.20
-2.10	-3.70	-0.15
-1.99	-4.62	-0.14
-1.95	-4.13	-0.08
-2.06	-3.97	-0.04
-3.12	21.55	-0.40
5.40	-10.86	2.25
14.60	5.31	-0.43
5.43	-11.23	-0.69
26.62	7.55	-0.25
29.85	7.30	0.02
-2.09	-4.87	0.24
-2.12	-4.94	0.44
-3.13	-6.63	0.67
-2.65	-5.13	0.58
-2.95	-5.22	0.66
-2.32	-5.42	0.70
6.82	-4.15	-0.44
6.82	-3.82	-0.50
6.78	-4.13	-0.73
6.72	-3.77	-0.78
6.78	-3.82	0.07
32.76	10.60	0.62
15.29	-5.00	-0.73
28.20	9.14	1.62
8.41	-3.09	0.01
53.37	-13.22	0.48
28.29	8.04	1.89
-5.51	30.72	0.27
29.31	7.19	2.23
6.80	-4.17	-0.44
6.82	-3.85	-0.51
6.77	-4.16	-0.73
6.75	-3.81	-0.79
17.05	-12.28	4.71
18.20	-12.12	4.67
6.78	-3.85	0.07
-2.03	-4.30	-0.79
-2.03	-3.93	-0.69
-2.13	-3.78	-0.64
-2.02	-4.29	-0.61
-2.02	-3.92	-0.52
-2.06	-3.66	-0.46
-2.02	-4.74	-0.52
-2.05	-4.36	-0.44
-2.04	-3.96	-0.37
-2.08	-3.69	-0.31
-2.01	-4.70	-0.33
-2.01	-4.27	-0.26
-2.01	-3.89	-0.20
-2.10	-3.73	-0.15
-2.00	-4.69	-0.14
-1.96	-4.17	-0.08
-5.42	30.75	0.27
-1.99	-3.86	-0.04
24.88	9.08	2.17
-2.97	21.40	-0.39
26.15	8.48	2.51
27.60	7.85	2.89
26.61	9.72	3.36
25.00	8.12	3.37
-2.08	-4.88	0.24
-2.13	-5.02	0.45
-3.10	-6.61	0.67
-2.65	-5.17	0.58
-2.92	-5.22	0.66
-2.30	-5.41	0.70
25.87	7.37	3.71
24.71	9.04	4.10
26.49	8.62	4.61
6.79	-4.19	-0.44
6.81	-3.87	-0.51
6.78	-4.19	-0.73
6.73	-3.83	-0.79
18.44	-12.36	4.74
15.38	-4.98	-0.73
26.76	7.63	4.88
15.02	-4.26	-0.29
14.82	-4.79	-0.14
8.54	-3.11	0.01
53.41	-13.06	0.48
-2.92	21.55	-0.40
6.78	-3.88	0.07
26.57	9.75	5.48
26.86	8.75	5.75
7.53	-11.66	3.23
6.77	-4.56	-0.37
-2.04	-4.36	-0.80
-2.02	-3.94	-0.69
-2.12	-3.79	-0.64
-2.01	-4.29	-0.61
-2.01	-3.93	-0.53
-2.08	-3.71	-0.47
-2.02	-4.78	-0.53
-2.04	-4.37	-0.44
-2.05	-3.99	-0.37
-2.08	-3.72	-0.31
-1.97	-4.67	-0.33
-2.00	-4.28	-0.26
-2.00	-3.91	-0.20
-2.09	-3.74	-0.15
-2.01	-4.76	-0.14
-2.01	-4.32	-0.09
4.43	-11.18	-0.87
4.40	-10.02	-0.90
6.35	-11.64	3.35
5.78	-11.61	3.42
5.63	-11.62	3.66
-2.06	-4.89	0.24
-2.20	-4.74	0.29
-2.14	-5.08	0.45
-2.62	-5.14	0.58
-2.82	-5.06	0.64
-2.29	-5.44	0.70
6.76	-4.20	-0.44
6.81	-3.90	-0.51
6.80	-4.23	-0.73
6.76	-3.89	0.07
6.18	-11.63	3.59
7.53	-11.64	3.78
6.94	-11.66	3.84
6.80	-4.60	-0.37
6.72	-4.21	-0.44
6.81	-3.93	-0.51
6.79	-4.26	-0.73
15.73	-5.04	-0.75
5.61	-11.61	3.13
6.76	-3.90	-0.79
15.09	-4.23	-0.29
15.40	-4.31	0.29
8.76	-3.15	1.03
-0.40	6.99	0.77
6.77	-3.92	0.07
6.17	-11.64	3.06
-2.03	-4.38	-0.80
-2.02	-3.97	-0.70
-2.11	-3.80	-0.64
-2.01	-4.33	-0.61
-2.10	-4.13	-0.55
-2.05	-3.68	-0.46
-2.03	-4.85	-0.53
-2.04	-4.40	-0.44
-2.02	-3.98	-0.37
-2.04	-3.68	-0.31
-2.00	-4.76	-0.33
-2.00	-4.32	-0.26
-2.03	-3.99	-0.20
-2.08	-3.75	-0.15
-1.99	-4.74	-0.14
-2.01	-4.34	-0.09
-2.03	-4.01	-0.04
5.28	-9.69	-0.91
5.28	-10.58	-0.86
5.20	-10.78	2.44
5.75	-10.86	2.38
-2.04	-4.87	0.24
-2.15	-4.66	0.28
-0.37	6.94	0.77
-3.13	-7.50	0.66
-2.29	-4.96	0.50
-2.63	-5.20	0.59
-2.90	-5.26	0.66
-2.29	-5.49	0.70
4.27	-10.83	2.16
4.74	-10.83	2.08
6.79	-4.63	-0.37
6.75	-4.25	-0.44
6.79	-3.94	-0.51
6.75	-3.92	-0.79
16.39	-5.20	-0.78
5.21	-10.80	1.99
15.21	-4.22	-0.29
8.61	-3.07	0.01
15.35	-4.25	0.29
8.69	-3.10	0.34
8.66	-3.09	0.68
6.77	-4.63	0.53
6.75	-3.94	0.07
5.90	-11.17	1.97
7.34	-11.40	-0.88
26.60	7.13	4.30
6.77	-4.65	-0.37
-2.02	-4.38	-0.80
-2.00	-3.96	-0.69
-2.10	-3.81	-0.64
-0.35	6.93	0.77
63.89	9.79	7.15
-2.02	-4.40	-0.62
-2.10	-4.16	-0.55
-2.06	-3.73	-0.47
-2.03	-4.89	-0.54
-2.03	-4.42	-0.45
-2.04	-4.04	-0.37
-2.06	-3.74	-0.31
-1.98	-4.77	-0.33
-2.08	-4.52	-0.27
-1.99	-3.96	-0.20
-2.08	-3.78	-0.16
-2.03	-4.88	-0.15
-2.00	-4.36	-0.09
-2.01	-4.00	-0.04
28.12	7.51	2.38
4.96	-11.36	0.34
6.33	-12.04	0.12
29.84	6.80	0.55
-2.02	-4.87	0.24
-2.15	-4.69	0.28
-3.12	-7.55	0.67
-2.59	-5.15	0.58
-2.85	-5.20	0.66
-2.28	-5.50	0.71
6.82	-4.33	-0.44
6.77	-3.96	-0.51
6.74	-3.95	-0.79
-0.33	6.95	0.77
14.58	5.35	-0.43
6.77	-4.67	0.53
6.77	-3.98	0.07
29.94	4.55	0.02
26.62	7.64	-0.25
29.82	7.39	0.02
6.76	-4.67	-0.37
16.39	-5.14	-0.78
29.97	11.02	0.28
6.82	-4.36	-0.44
15.30	-4.19	-0.29
8.65	-3.06	0.01
15.44	-4.22	0.29
8.73	-3.08	0.34
8.69	-3.07	0.68
6.76	-3.98	-0.51
6.75	-3.98	-0.79
-2.01	-4.40	-0.80
-2.06	-4.11	-0.72
-2.10	-3.83	-0.64
-2.02	-4.43	-0.63
-2.09	-4.18	-0.56
-2.05	-3.74	-0.47
-2.02	-4.90	-0.54
-2.02	-4.43	-0.45
-2.05	-4.09	-0.38
-2.05	-3.75	-0.31
-1.99	-4.82	-0.34
-2.12	-4.65	-0.28
-0.31	6.90	0.76
32.76	10.71	0.62
-2.08	-4.17	-0.21
-2.08	-3.81	-0.16
-2.00	-4.86	-0.15
-1.98	-4.36	-0.09
-2.01	-4.02	-0.04
28.17	9.22	1.62
28.23	8.12	1.89
29.44	7.32	2.24
24.85	9.15	2.17
26.12	8.56	2.51
-2.01	-4.89	0.24
-3.08	-6.79	0.68
-2.59	-5.19	0.58
-2.83	-5.21	0.66
-2.28	-5.56	0.71
16.36	-12.26	5.39
6.83	-4.03	0.65
6.76	-4.69	0.53
6.77	-4.01	0.07
29.53	8.50	3.09
27.68	6.89	3.16
26.87	9.91	3.40
6.74	-4.69	-0.37
6.81	-4.38	-0.45
6.80	-4.03	-0.51
6.76	-4.01	-0.80
16.40	-5.09	-0.78
25.07	8.23	3.38
15.44	-4.18	-0.29
-0.29	6.94	0.77
25.79	7.43	3.70
14.80	-4.59	-0.14
8.66	-3.03	0.01
59.10	-13.68	0.53
15.53	-4.20	0.29
8.70	-3.04	0.34
-2.00	-4.42	-0.80
-2.06	-4.14	-0.72
-2.11	-3.88	-0.65
-2.01	-4.45	-0.63
-2.07	-4.17	-0.55
-2.04	-3.75	-0.47
-2.02	-4.94	-0.54
-2.01	-4.45	-0.45
-2.04	-4.10	-0.38
-2.04	-3.76	-0.31
-2.03	-4.98	-0.35
-2.10	-4.65	-0.28
-2.11	-4.25	-0.21
-2.05	-3.79	-0.15
-2.00	-4.91	-0.15
-1.98	-4.40	-0.09
-1.98	-3.99	-0.04
28.30	7.05	4.31
24.69	9.12	4.10
26.28	8.64	4.58
26.74	7.71	4.88
26.52	9.82	5.48
-2.01	-4.94	0.24
-0.27	6.89	0.76
26.52	8.73	5.68
-3.05	-7.50	0.66
-3.06	-6.80	0.68
-2.54	-5.14	0.58
-2.80	-5.19	0.65
-2.27	-5.60	0.72
8.70	-3.04	0.68
6.82	-4.76	1.46
6.71	-4.68	0.53
6.75	-4.02	0.07
5.46	-11.38	-0.69
28.00	5.31	-0.26
4.39	-11.20	-0.87
6.75	-4.73	-0.37
6.78	-4.39	-0.44
6.75	-4.03	-0.51
6.74	-4.03	-0.80
6.71	-4.72	0.53
6.74	-4.05	0.07
4.36	-10.01	-0.90
9.41	-15.83	-0.34
6.54	-11.97	-0.12
6.73	-4.74	-0.37
16.29	-5.00	-0.77
5.58	-11.62	3.65
-2.12	-3.92	-0.82
-1.99	-4.43	-0.81
-2.06	-4.16	-0.73
-2.10	-3.89	-0.65
-2.01	-4.48	-0.63
-0.24	6.90	0.76
6.13	-11.63	3.59
-2.06	-4.18	-0.55
-2.04	-3.77	-0.47
-2.03	-5.01	-0.55
-2.01	-4.48	-0.45
-2.04	-4.14	-0.38
-2.04	-3.79	-0.31
-1.98	-4.88	-0.34
-2.08	-4.65	-0.28
-2.08	-4.23	-0.21
-2.07	-3.85	-0.16
-2.00	-4.94	-0.15
-1.97	-4.41	-0.09
-1.98	-4.04	-0.04
6.54	-11.96	0.38
6.65	-11.17	0.71
5.57	-11.61	3.13
7.03	-10.85	2.02
-1.99	-4.92	0.24
-3.02	-7.49	0.66
-2.55	-5.19	0.58
-2.80	-5.22	0.66
-2.29	-5.68	0.73
6.77	-4.41	-0.44
15.60	-4.17	-0.29
8.68	-3.01	0.01
55.88	-12.76	0.50
15.74	-4.20	0.29
6.84	-4.11	-0.51
6.74	-4.06	-0.80
-0.22	6.91	0.77
6.49	-10.87	2.10
6.73	-4.06	0.07
5.97	-10.88	2.18
5.15	-10.75	2.43
6.73	-4.77	-0.37
6.77	-4.44	-0.45
6.77	-4.10	-0.51
6.73	-4.08	-0.80
16.37	-4.97	-0.77
5.69	-10.84	2.37
15.77	-4.16	-0.30
8.69	-2.99	0.01
15.98	-4.21	0.30
-2.11	-3.92	-0.82
-1.98	-4.44	-0.81
-2.05	-4.18	-0.73
-2.06	-3.85	-0.64
-2.00	-4.49	-0.63
-2.04	-4.17	-0.55
-2.05	-3.83	-0.48
-1.99	-4.95	-0.54
-2.00	-4.50	-0.45
-2.03	-4.15	-0.38
-2.02	-3.77	-0.31
-2.01	-5.01	-0.35
-2.06	-4.63	-0.28
-2.07	-4.25	-0.21
-2.05	-3.84	-0.16
-2.00	-4.99	-0.15
-0.20	6.89	0.76
4.24	-10.83	2.16
-5.16	37.25	0.33
-2.00	-4.52	-0.09
-1.97	-4.05	-0.04
4.71	-10.84	2.07
5.17	-10.80	1.98
5.86	-11.19	1.97
5.45	-10.86	2.25
7.57	-11.65	3.23
-1.99	-4.97	0.24
-2.13	-4.82	0.29
-3.00	-7.51	0.66
-2.20	-4.97	0.50
-2.51	-5.16	0.58
-2.77	-5.20	0.65
-2.31	-5.78	0.74
6.74	-4.10	0.07
6.99	-11.68	3.30
6.39	-11.64	3.36
6.76	-4.83	-0.38
6.76	-4.47	-0.45
6.81	-4.15	-0.52
6.73	-4.12	0.07
5.82	-11.61	3.43
6.25	-11.97	0.12
6.76	-4.86	-0.38
6.75	-4.49	-0.45
6.78	-4.16	-0.51
16.38	-4.92	-0.77
7.59	-11.64	3.79
15.94	-4.16	-0.30
-0.18	6.91	0.76
-0.44	7.01	0.71
60.90	-13.50	2.82
6.73	-4.15	0.07
14.56	5.39	-0.43
26.48	7.69	-0.25
-2.10	-3.94	-0.82
-1.97	-4.45	-0.81
-2.03	-4.18	-0.73
-2.05	-3.85	-0.64
-2.00	-4.53	-0.64
-2.04	-4.19	-0.55
-2.06	-3.87	-0.48
-2.03	-5.09	-0.56
-2.01	-4.56	-0.46
-2.03	-4.18	-0.38
-2.01	-3.79	-0.31
-2.00	-5.03	-0.35
-2.03	-4.62	-0.28
-2.11	-4.36	-0.22
-2.05	-3.86	-0.16
-2.01	-5.04	-0.15
-2.01	-4.57	-0.09
-1.99	-4.10	-0.04
29.85	7.49	0.02
27.61	9.12	0.53
27.58	9.13	1.59
28.46	8.28	1.90
28.05	7.06	2.13
-1.97	-4.97	0.24
-2.11	-4.80	0.29
-0.16	6.89	0.76
-0.42	7.07	0.71
24.86	9.25	2.17
-2.98	-7.51	0.66
-2.20	-5.03	0.50
-2.52	-5.21	0.58
-2.73	-5.16	0.65
-2.30	-5.81	0.74
6.78	-4.91	-0.38
6.77	-4.19	-0.51
16.63	-12.05	5.20
6.73	-4.18	0.07
26.15	8.66	2.51
29.39	8.56	3.08
6.78	-4.93	-0.38
6.78	-4.57	-0.45
6.79	-4.23	-0.52
27.32	6.89	3.12
39.19	-10.09	-0.74
60.88	-13.30	2.82
62.93	-13.72	5.27
26.66	9.93	3.37
25.07	8.31	3.38
6.78	-4.97	-0.38
6.78	-4.25	-0.52
24.76	7.22	3.56
25.19	9.39	4.19
-2.09	-3.95	-0.82
-2.03	-4.21	-0.73
-2.05	-3.88	-0.64
-1.99	-4.55	-0.64
-2.04	-4.23	-0.56
-2.05	-3.88	-0.48
-0.14	6.88	0.76
-0.40	7.07	0.71
26.23	8.71	4.58
-2.03	-5.14	-0.56
-2.00	-4.58	-0.46
-2.03	-4.23	-0.39
-2.02	-3.83	-0.31
-1.99	-5.04	-0.35
-2.02	-4.63	-0.28
-2.16	-4.50	-0.23
-2.00	-3.80	-0.15
-1.98	-5.02	-0.15
-2.00	-4.57	-0.09
-2.02	-4.21	-0.04
27.89	8.14	5.10
26.49	9.90	5.48
26.70	8.88	5.73
27.71	8.09	6.17
6.98	-11.65	3.85
-1.96	-4.98	0.24
-2.12	-4.87	0.29
-2.93	-7.46	0.66
-2.52	-5.26	0.59
-2.72	-5.18	0.65
-2.27	-5.79	0.74
6.77	-4.99	-0.38
6.76	-4.27	-0.52
5.31	-9.66	-0.91
39.54	-10.05	-0.74
62.88	-13.51	5.26
62.98	-13.49	7.64
15.00	-11.96	4.30
5.32	-10.57	-0.86
-0.12	6.85	0.76
-0.37	6.99	0.70
4.36	-11.21	-0.87
4.32	-10.01	-0.90
6.77	-5.03	-0.38
6.80	-4.32	-0.52
7.37	-11.36	-0.87
6.54	-11.88	-0.12
6.79	-5.07	-0.38
6.76	-4.68	-0.45
7.25	-4.63	-0.56
5.54	-11.61	3.64
51.39	-12.87	0.96
15.03	-4.35	0.43
-2.08	-3.96	-0.83
-2.04	-4.25	-0.74
-2.04	-3.88	-0.64
-2.00	-4.60	-0.65
-2.03	-4.23	-0.56
-2.04	-3.90	-0.48
-2.03	-5.19	-0.56
-2.03	-4.68	-0.47
-2.08	-4.35	-0.40
-2.02	-3.87	-0.32
-1.98	-5.06	-0.35
-2.01	-4.64	-0.28
-2.19	-4.58	-0.23
-2.03	-3.89	-0.16
-1.98	-5.07	-0.15
-2.00	-4.61	-0.09
-1.97	-4.13	-0.04
6.09	-11.63	3.58
7.99	-12.30	0.13
-0.10	6.85	0.76
-0.35	6.96	0.70
-0.10	7.39	0.55
6.23	-11.32	0.36
5.52	-11.60	3.12
-0.08	6.24	0.00
6.07	-11.63	3.05
28.16	7.46	4.54
27.70	7.32	3.40
-0.08	6.60	-0.24
-1.94	-4.98	0.24
-2.10	-4.86	0.29
-2.45	-5.15	0.57
-2.71	-5.20	0.65
-2.33	-6.00	0.76
63.00	-13.36	2.91
62.96	-13.32	5.26
62.89	-13.27	7.62
5.11	-10.75	2.42
5.66	-10.85	2.37
6.77	-5.09	-0.38
6.75	-4.70	-0.45
7.19	-4.63	-0.55
4.20	-10.83	2.16
4.66	-10.83	2.07
6.78	-5.13	-0.39
5.14	-10.82	1.98
6.75	-4.73	-0.45
34.32	-8.50	-0.65
53.38	-13.20	0.99
63.03	-13.17	2.91
62.97	-13.12	5.26
62.94	-13.08	7.62
7.13	-4.62	-0.55
-2.06	-3.95	-0.82
-0.07	6.84	0.76
-0.33	6.93	0.70
-0.07	6.59	0.49
5.83	-11.21	1.97
63.72	9.56	7.13
-3.76	31.41	0.27
-0.06	6.23	0.00
-2.03	-4.28	-0.74
-2.02	-3.88	-0.64
-2.11	-4.91	-0.69
-0.06	6.40	-0.23
-2.04	-4.29	-0.57
-2.03	-3.91	-0.48
-2.03	-5.22	-0.57
-0.06	6.33	-0.46
-2.02	-4.70	-0.47
-2.06	-4.36	-0.40
-2.04	-3.92	-0.32
-1.98	-5.10	-0.35
-2.02	-4.69	-0.28
-2.18	-4.61	-0.23
-2.00	-3.86	-0.16
-1.97	-5.09	-0.15
-2.01	-4.68	-0.09
-2.06	-4.35	-0.04
26.65	7.03	2.25
29.84	6.70	0.55
29.93	7.87	0.27
30.00	4.47	0.02
-1.92	-4.98	0.24
-2.10	-4.90	0.29
-2.30	-4.87	0.35
-3.44	-6.66	0.55
-2.46	-5.21	0.58
-2.65	-5.14	0.64
-2.33	-6.06	0.77
17.22	-12.08	4.28
-0.05	6.81	0.75
-0.30	6.90	0.70
-0.05	6.18	0.46
5.27	-11.14	0.22
6.20	-11.96	0.12
-0.04	5.93	0.00
14.50	5.42	-0.43
27.69	5.16	-0.25
6.76	-5.15	-0.38
-0.04	6.32	-0.23
7.11	-4.64	-0.55
26.46	7.77	-0.25
29.81	7.58	0.02
-0.04	6.12	-0.44
6.77	-5.19	-0.39
34.33	-8.39	-0.65
62.87	-12.93	2.90
62.96	-12.92	5.26
-4.38	-11.44	2.85
62.98	-12.89	7.62
6.73	-4.78	-0.45
7.09	-4.66	-0.55
15.67	-12.02	5.00
27.55	9.20	0.52
6.78	-5.23	-0.39
6.70	-4.79	-0.45
-2.05	-3.96	-0.82
-2.03	-4.31	-0.74
-2.03	-3.92	-0.65
-2.11	-4.94	-0.69
-2.03	-4.31	-0.57
-2.03	-3.93	-0.48
-2.01	-5.24	-0.57
-2.01	-4.71	-0.47
-2.03	-4.33	-0.39
-2.03	-3.95	-0.32
-1.97	-5.13	-0.35
-0.03	6.81	0.75
-0.28	6.89	0.69
-0.03	6.01	0.44
27.16	9.08	1.57
-2.01	-4.72	-0.28
-2.17	-4.62	-0.23
-1.97	-5.13	-0.15
-0.02	5.78	-0.21
-2.00	-4.70	-0.09
-2.01	-4.28	-0.04
28.18	8.29	1.89
-0.02	5.76	-0.42
27.95	7.13	2.13
24.98	9.38	2.18
26.27	8.79	2.53
-1.93	-5.03	0.24
-2.08	-4.91	0.29
-2.44	-5.22	0.58
-2.68	-5.22	0.65
-2.32	-6.09	0.77
7.08	-4.68	-0.55
29.67	8.74	3.11
34.34	-8.28	-0.65
63.02	-12.76	2.91
62.90	-12.70	5.25
62.95	-12.68	7.61
27.07	6.92	3.09
25.60	9.62	3.24
6.77	-5.25	-0.39
7.11	-4.73	-0.55
24.88	8.34	3.36
24.76	7.30	3.56
6.76	-5.28	-0.39
6.79	-4.92	-0.46
7.10	-4.76	-0.55
-0.01	6.72	0.74
-0.26	6.89	0.69
-0.01	5.62	0.41
27.21	6.95	4.15
-3.43	31.05	0.27
8.51	-7.17	-0.81
14.10	-11.91	5.64
25.82	9.72	4.30
-0.00	5.61	-0.20
34.37	-8.17	-0.64
-2.04	-3.97	-0.82
-2.05	-4.39	-0.76
0.00	5.73	-0.42
-2.03	-3.96	-0.65
-2.12	-5.01	-0.70
-2.08	-4.45	-0.58
-2.01	-3.93	-0.48
-2.02	-5.31	-0.58
-2.00	-4.73	-0.47
-2.02	-4.33	-0.39
-2.04	-3.98	-0.32
-1.95	-5.14	-0.35
-1.99	-4.71	-0.28
-2.15	-4.61	-0.23
-2.00	-3.92	-0.16
-1.95	-5.12	-0.15
-2.00	-4.73	-0.09
26.25	8.81	4.59
27.00	7.97	4.94
26.70	8.97	5.73
27.63	8.16	6.16
-2.15	-4.22	0.18
-1.92	-5.06	0.24
-2.07	-4.92	0.29
-3.47	-6.82	0.56
-2.21	-5.24	0.52
0.01	6.49	1.21
0.01	6.48	0.96
0.01	6.62	0.73
-0.24	6.90	0.69
0.01	5.61	0.41
6.68	-11.14	0.71
-3.33	31.05	0.27
-2.46	-5.29	0.59
-2.64	-5.19	0.64
63.10	-12.58	2.91
0.02	5.50	-0.20
62.94	-12.51	5.25
7.09	-10.86	2.02
6.54	-10.87	2.10
0.02	5.72	-0.42
4.33	-11.24	-0.87
6.74	-5.30	-0.39
6.76	-4.93	-0.46
8.42	-7.13	-0.80
4.28	-10.00	-0.89
6.03	-10.90	2.19
5.49	-10.86	2.26
34.39	-8.07	-0.64
14.85	-4.65	0.01
63.02	-12.36	2.90
63.04	-12.33	5.25
62.98	-12.29	7.61
6.73	-5.32	-0.39
6.78	-4.97	-0.46
8.40	-7.16	-0.80
-5.80	-11.39	3.91
-2.03	-3.98	-0.82
-2.03	-4.37	-0.75
-2.03	-3.98	-0.66
-2.07	-4.47	-0.59
-2.05	-4.02	-0.49
-2.01	-5.33	-0.58
-2.02	-4.81	-0.48
-0.22	6.85	0.69
0.03	5.60	0.41
5.50	-11.62	3.64
-3.24	31.05	0.27
0.03	5.31	0.00
-2.02	-4.36	-0.39
-2.03	-3.99	-0.32
-1.96	-5.21	-0.36
0.03	5.43	-0.20
-2.00	-4.78	-0.28
-2.13	-4.61	-0.23
-2.00	-3.94	-0.16
0.04	5.69	-0.41
-1.95	-5.19	-0.15
-1.98	-4.74	-0.09
-2.03	-4.41	-0.04
6.05	-11.64	3.58
7.61	-11.64	3.23
7.04	-11.68	3.31
-2.15	-4.25	0.18
-1.91	-5.08	0.25
-2.14	-4.64	0.33
-3.53	-6.98	0.58
-2.21	-5.30	0.52
-2.38	-5.17	0.57
-2.61	-5.16	0.64
5.48	-11.60	3.11
6.02	-11.61	3.04
6.72	-5.35	-0.39
8.36	-7.17	-0.80
6.44	-11.65	3.37
35.98	-8.32	-0.67
59.22	-13.68	1.10
62.86	-12.13	2.89
63.06	-12.13	5.25
62.98	-12.09	7.60
0.05	6.56	0.73
-0.20	6.89	0.69
0.04	5.59	0.41
5.87	-11.61	3.43
-3.14	31.05	0.27
5.07	-10.76	2.42
5.62	-10.86	2.37
6.72	-5.38	-0.39
0.05	5.42	-0.19
6.78	-5.03	-0.46
8.35	-7.21	-0.80
15.24	-12.23	4.18
0.05	5.71	-0.41
4.15	-10.80	2.15
4.61	-10.80	2.06
6.78	-5.46	-0.39
6.78	-5.07	-0.47
-2.02	-4.00	-0.83
-2.02	-4.38	-0.75
-2.02	-3.99	-0.66
-2.07	-4.50	-0.59
-2.11	-4.17	-0.51
-2.00	-5.35	-0.58
-2.00	-4.80	-0.48
-2.02	-4.40	-0.40
-2.03	-4.03	-0.33
-1.95	-5.21	-0.36
-1.99	-4.79	-0.29
-2.11	-4.61	-0.23
-2.01	-4.00	-0.16
-1.97	-5.28	-0.16
-2.00	-4.81	-0.10
-1.99	-4.35	-0.04
5.10	-10.82	1.98
5.80	-11.23	1.97
7.63	-11.64	3.80
0.08	7.52	1.11
0.07	6.51	0.72
0.06	5.59	0.41
7.03	-11.65	3.85
-3.04	31.05	0.27
0.07	5.56	0.00
-2.16	-4.31	0.18
-1.89	-5.08	0.25
-2.02	-4.88	0.29
0.07	5.44	-0.20
-2.23	-4.87	0.34
-2.18	-5.87	0.51
-2.78	-6.72	0.66
0.07	5.59	-0.41
-2.36	-5.16	0.57
-2.59	-5.18	0.64
8.31	-7.22	-0.80
5.34	-9.65	-0.91
35.96	-8.21	-0.67
14.83	-4.54	0.01
56.13	-12.78	1.04
62.98	-11.95	2.90
63.04	-11.93	5.25
63.02	-11.89	7.60
5.36	-10.59	-0.86
5.26	-11.20	0.68
6.77	-5.49	-0.39
6.81	-5.13	-0.47
8.32	-7.27	-0.80
14.46	5.46	-0.43
35.97	-8.09	-0.67
15.93	-4.20	-0.15
14.80	-4.48	0.01
61.05	-13.71	1.13
62.92	-11.74	2.89
63.06	-11.73	5.25
-2.00	-3.99	-0.82
0.09	6.43	0.71
-0.41	6.90	0.63
0.08	5.53	0.41
7.40	-11.33	-0.87
-2.94	31.03	0.27
0.08	5.43	0.00
-2.00	-4.38	-0.75
-2.01	-4.01	-0.66
-2.05	-4.50	-0.59
0.08	5.41	-0.19
-2.09	-4.18	-0.51
-2.00	-5.41	-0.59
-2.01	-4.87	-0.48
0.09	5.58	-0.40
-2.01	-4.42	-0.40
-2.00	-4.01	-0.33
-1.99	-5.39	-0.37
-1.97	-4.79	-0.28
-2.10	-4.61	-0.23
-1.98	-3.96	-0.16
-1.96	-5.31	-0.16
-1.98	-4.82	-0.10
-1.98	-4.35	-0.04
26.38	7.83	-0.25
29.87	7.69	0.02
27.45	9.26	0.52
-2.17	-4.34	0.18
-1.88	-5.10	0.25
-2.01	-4.91	0.29
-2.21	-4.87	0.34
-2.17	-5.89	0.51
-2.77	-6.76	0.67
-2.32	-5.12	0.57
-2.61	-5.25	0.65
63.05	-11.70	7.60
6.90	-4.82	1.31
6.95	-4.87	0.38
0.12	6.94	1.03
0.11	6.36	0.70
-0.40	7.07	0.65
0.10	5.55	0.41
27.47	9.28	1.59
-2.85	31.06	0.27
0.10	5.39	0.00
27.92	8.31	1.87
27.96	7.22	2.13
6.76	-5.52	-0.40
0.10	5.43	-0.20
6.81	-5.16	-0.47
8.44	-7.43	-0.82
16.21	-12.25	5.75
0.10	5.57	-0.40
6.73	-4.75	0.37
6.73	-5.94	0.33
25.14	9.52	2.20
26.03	8.80	2.51
6.74	-5.54	-0.40
29.29	8.72	3.08
15.13	-4.52	0.59
62.97	-11.55	2.89
63.12	-11.54	5.25
62.83	-13.85	5.87
63.05	-11.50	7.60
-2.00	-4.41	-0.76
-2.02	-4.05	-0.66
-2.05	-4.53	-0.59
-2.07	-4.17	-0.51
-2.00	-5.44	-0.59
-2.00	-4.89	-0.48
-2.00	-4.44	-0.40
-2.03	-4.09	-0.33
-1.99	-5.44	-0.37
-1.98	-4.86	-0.29
-2.07	-4.59	-0.23
-1.99	-4.02	-0.16
0.14	6.92	1.02
-0.37	6.88	0.88
0.13	6.34	0.70
-0.37	6.93	0.63
0.11	5.51	0.41
26.12	6.76	2.98
25.47	9.67	3.23
0.11	5.31	0.00
-1.98	-5.42	-0.16
-1.98	-4.86	-0.10
-1.98	-4.40	-0.04
0.11	5.37	-0.19
-0.10	6.87	-0.31
24.72	8.37	3.34
24.66	7.35	3.55
0.12	5.55	-0.40
27.49	7.11	4.19
-2.15	-4.35	0.18
-1.86	-5.11	0.25
-2.02	-4.97	0.29
-2.15	-5.89	0.51
-2.72	-6.71	0.66
-2.36	-5.24	0.58
-2.57	-5.21	0.64
6.80	-5.18	-0.47
6.74	-5.99	0.34
25.95	9.86	4.33
27.49	9.32	4.81
6.73	-5.56	-0.40
6.81	-5.22	-0.47
28.29	8.44	5.18
63.03	-13.75	1.17
15.12	-4.47	0.59
62.98	-11.35	2.89
62.88	-13.69	3.52
62.98	-11.32	5.23
62.92	-13.67	5.88
6.70	-5.98	0.33
26.78	9.09	5.76
-0.35	6.91	0.89
0.14	6.30	0.70
-0.34	6.90	0.63
0.13	5.49	0.40
-0.09	6.99	0.45
27.60	8.24	6.16
5.24	-11.17	0.22
0.13	5.42	0.00
-0.08	6.32	-0.06
6.19	-12.04	0.12
6.79	-5.64	-0.40
0.13	5.41	-0.19
-0.08	6.52	-0.30
6.82	-5.26	-0.47
6.72	-6.04	0.34
0.14	5.55	-0.40
5.82	-11.45	0.01
-1.99	-4.44	-0.76
-2.04	-4.14	-0.68
-2.04	-4.55	-0.59
-2.05	-4.16	-0.51
-2.02	-5.55	-0.60
-1.99	-4.92	-0.49
-2.01	-4.49	-0.40
-2.03	-4.13	-0.33
-1.96	-5.40	-0.37
-2.01	-4.97	-0.29
-2.05	-4.58	-0.23
-1.98	-4.03	-0.16
-2.01	-4.97	-0.10
8.03	-12.27	0.13
5.93	-11.55	-0.84
4.30	-11.25	-0.87
4.25	-10.03	-0.89
-2.13	-4.34	0.18
-1.84	-5.09	0.24
-2.00	-4.97	0.29
-2.16	-5.98	0.52
-2.73	-6.78	0.67
0.18	6.96	1.03
-0.33	6.93	0.89
0.16	6.28	0.69
-0.32	6.91	0.63
0.14	5.45	0.40
-0.06	6.10	0.39
6.27	-11.30	0.36
28.20	7.38	4.55
-2.57	31.18	0.27
0.15	5.41	0.00
-0.06	6.33	-0.06
-2.55	-5.20	0.64
5.45	-11.62	3.63
0.15	5.39	-0.19
-0.06	6.42	-0.29
6.00	-11.64	3.57
6.71	-5.61	-0.40
0.16	5.55	-0.40
-0.05	6.25	-0.51
63.08	-13.56	1.17
15.26	-4.46	0.59
63.02	-11.16	2.89
62.87	-13.48	3.52
63.06	-11.13	5.24
63.07	-11.10	7.59
6.80	-5.28	-0.47
9.89	-7.12	-0.79
6.68	-6.04	0.33
6.79	-5.71	0.24
27.63	7.21	3.39
63.79	9.37	7.13
6.74	-5.68	-0.40
6.77	-5.29	-0.47
9.86	-7.15	-0.79
13.36	-12.16	5.52
5.43	-11.60	3.11
-2.00	-4.48	-0.77
-2.05	-4.17	-0.68
-2.02	-4.55	-0.59
-2.05	-4.19	-0.51
-2.03	-5.66	-0.61
-0.31	6.94	0.89
0.18	6.22	0.69
-0.30	6.92	0.63
0.16	5.43	0.40
-0.04	5.93	0.38
5.98	-11.63	3.04
27.90	7.27	2.36
29.84	6.61	0.55
0.16	5.33	0.00
-0.04	5.97	-0.05
-2.00	-4.99	-0.49
-1.98	-4.46	-0.40
0.16	5.37	-0.19
-0.03	5.94	-0.27
-2.03	-4.15	-0.34
-1.98	-5.51	-0.38
0.17	5.55	-0.40
-0.03	5.95	-0.49
-2.01	-5.02	-0.30
-2.01	-4.54	-0.22
-2.19	-4.48	-0.18
-2.00	-5.58	-0.17
-1.99	-4.97	-0.10
-2.01	-4.53	-0.04
5.03	-10.76	2.42
5.58	-10.86	2.37
4.11	-10.81	2.15
-2.13	-4.38	0.18
-1.83	-5.10	0.24
-1.99	-4.98	0.29
-2.71	-6.80	0.67
-2.55	-5.25	0.65
15.41	-4.45	0.60
63.10	-10.97	2.89
62.96	-13.30	3.52
63.15	-10.95	5.24
63.05	-13.30	5.88
62.95	-10.88	7.57
4.58	-10.81	2.06
5.06	-10.83	1.98
-0.28	6.91	0.89
0.20	6.19	0.69
-0.03	6.88	0.69
-0.28	6.90	0.63
0.18	5.45	0.40
-0.02	5.77	0.37
5.77	-11.25	1.97
30.00	7.79	0.27
30.26	4.41	0.02
0.18	5.35	0.00
6.75	-5.72	-0.40
6.77	-5.33	-0.47
0.18	5.40	-0.19
-0.02	5.73	-0.26
9.82	-7.17	-0.78
14.44	5.50	-0.43
0.19	5.56	-0.40
-0.01	5.82	-0.48
27.71	5.08	-0.25
34.29	-8.47	-0.32
63.07	-10.77	2.89
62.92	-13.09	3.51
62.99	-10.72	5.23
62.92	-13.07	5.86
62.94	-10.68	7.57
26.35	7.91	-0.25
-1.98	-4.49	-0.77
-2.05	-4.22	-0.69
-2.01	-4.57	-0.59
-2.05	-4.22	-0.51
-2.01	-5.65	-0.61
-2.03	-5.10	-0.50
-2.02	-4.59	-0.41
-2.03	-4.18	-0.34
-1.98	-5.57	-0.38
-2.01	-5.07	-0.30
-2.00	-4.55	-0.23
-2.21	-4.56	-0.18
-1.97	-5.54	-0.16
-1.98	-4.99	-0.10
0.31	8.86	1.31
-0.26	6.86	0.88
0.22	6.17	0.68
-0.01	6.61	0.67
-0.26	6.89	0.63
0.19	5.43	0.40
-0.01	5.75	0.37
27.48	9.37	1.59
27.74	8.35	1.86
27.51	7.20	2.10
0.19	5.36	0.00
-1.99	-4.54	-0.04
25.05	9.58	2.19
0.20	5.35	-0.19
0.00	5.66	-0.26
27.63	9.44	2.66
29.01	8.74	3.05
0.21	5.52	-0.40
0.00	5.76	-0.47
-2.13	-4.40	0.18
-1.97	-4.99	0.29
-2.16	-4.92	0.34
-2.66	-6.74	0.66
-2.22	-5.06	0.56
-2.48	-5.15	0.63
6.73	-5.74	-0.40
6.75	-5.34	-0.47
9.80	-7.19	-0.78
6.77	-5.80	0.25
26.04	6.82	2.98
25.43	9.74	3.23
6.75	-5.79	-0.40
6.75	-5.38	-0.47
9.78	-7.23	-0.78
24.69	8.44	3.34
34.33	-8.37	-0.32
15.86	-4.48	0.61
63.12	-10.58	2.89
-4.50	-11.44	2.98
62.98	-12.90	3.52
63.06	-10.53	5.23
0.01	6.56	1.40
0.01	6.51	1.14
0.34	8.83	1.31
0.01	6.60	0.91
-0.24	6.86	0.88
0.23	6.09	0.67
0.01	6.62	0.67
-0.24	6.89	0.63
0.21	5.42	0.40
0.01	5.63	0.36
24.69	7.44	3.55
27.16	7.12	4.15
25.71	9.86	4.30
0.21	5.33	0.00
62.88	-12.86	5.86
62.91	-10.48	7.56
0.21	5.31	-0.19
0.02	5.60	-0.25
6.78	-6.28	0.34
26.92	9.22	4.71
0.22	5.54	-0.40
0.02	5.75	-0.47
-2.07	-4.72	-0.81
-2.05	-4.24	-0.69
-2.00	-4.57	-0.59
-2.06	-4.27	-0.52
-2.03	-5.75	-0.62
-2.01	-5.11	-0.50
-2.05	-4.68	-0.42
-2.02	-4.19	-0.34
-1.96	-5.57	-0.38
-2.01	-5.09	-0.30
-2.02	-4.64	-0.23
-2.19	-4.57	-0.18
-1.93	-5.49	-0.16
-1.97	-5.01	-0.10
-2.00	-4.60	-0.04
25.71	5.68	-0.48
5.23	-11.22	0.68
7.14	-10.88	2.03
-2.11	-4.40	0.18
-2.09	-5.94	0.28
-1.95	-4.98	0.29
-2.12	-4.88	0.34
0.37	8.85	1.31
-0.22	6.87	0.88
0.25	6.07	0.67
0.03	6.30	0.63
-0.22	6.85	0.63
0.23	5.43	0.40
0.03	5.71	0.37
5.20	-11.17	0.22
6.60	-10.89	2.11
6.06	-10.89	2.19
0.23	5.37	0.00
0.03	5.38	-0.05
-2.20	-6.27	0.54
-2.22	-5.11	0.56
0.23	5.29	-0.19
0.03	5.46	-0.25
-2.52	-5.26	0.65
5.52	-10.85	2.26
0.24	5.52	-0.40
0.04	5.74	-0.47
6.72	-5.80	-0.40
6.76	-5.42	-0.48
9.75	-7.25	-0.78
12.75	-11.89	5.33
5.82	-11.43	-0.83
34.35	-8.26	-0.32
63.04	-10.37	2.89
62.97	-12.70	3.51
63.05	-10.33	5.22
62.98	-12.68	5.86
63.00	-10.29	7.57
6.73	-6.28	0.34
4.27	-11.28	-0.87
4.23	-10.05	-0.90
6.72	-5.84	-0.40
6.75	-5.44	-0.48
7.61	-5.70	-0.61
6.82	-6.39	1.03
6.74	-6.33	0.34
-2.04	-4.27	-0.69
-2.00	-4.61	-0.60
-2.05	-4.28	-0.52
0.39	8.76	1.29
0.06	7.64	1.05
-0.20	6.86	0.88
0.27	6.07	0.67
-0.19	6.80	0.62
0.24	5.42	0.40
0.05	5.74	0.37
7.68	-11.67	3.25
7.09	-11.68	3.32
0.24	5.37	0.00
-2.03	-5.80	-0.62
-2.02	-5.16	-0.51
0.24	5.30	-0.19
-2.03	-4.68	-0.42
-2.02	-4.23	-0.34
0.26	5.51	-0.40
0.06	5.74	-0.47
-1.97	-5.64	-0.39
-1.99	-5.09	-0.30
-1.94	-4.49	-0.22
-2.18	-4.58	-0.18
-1.97	-5.64	-0.17
-1.95	-5.01	-0.10
-2.00	-4.63	-0.05
5.41	-11.62	3.63
5.96	-11.64	3.57
6.49	-11.64	3.37
-2.11	-4.44	0.18
-1.94	-4.99	0.29
-2.14	-4.96	0.35
-2.20	-6.33	0.55
-2.20	-5.10	0.56
-2.52	-5.31	0.65
5.92	-11.63	3.44
5.39	-11.61	3.11
6.75	-5.89	-0.41
7.70	-11.66	3.81
6.78	-5.51	-0.48
34.34	-8.15	-0.32
0.42	8.79	1.30
0.07	6.78	0.94
-0.17	6.81	0.62
0.26	5.39	0.40
0.07	5.75	0.37
7.07	-11.64	3.86
5.37	-9.63	-0.91
5.00	-10.78	2.42
-2.26	37.09	0.32
0.26	5.31	0.00
0.07	5.45	-0.05
15.44	-4.26	0.01
63.07	-10.17	2.89
0.26	5.29	-0.19
0.07	5.48	-0.25
63.06	-12.51	3.52
63.16	-10.15	5.23
0.27	5.50	-0.40
0.07	5.73	-0.47
63.01	-10.10	7.57
7.54	-5.68	-0.61
7.08	-6.68	1.08
6.72	-6.35	0.34
5.53	-10.85	2.36
4.07	-10.79	2.14
6.76	-5.95	-0.41
6.76	-5.52	-0.48
7.48	-5.68	-0.61
15.52	-4.24	0.01
-2.05	-4.32	-0.70
-2.04	-4.75	-0.61
-2.04	-4.30	-0.52
-2.02	-5.83	-0.63
-2.02	-5.22	-0.51
-2.01	-4.68	-0.42
-2.03	-4.28	-0.34
-1.97	-5.70	-0.39
-1.98	-5.13	-0.30
-1.99	-4.65	-0.23
-2.17	-4.58	-0.18
-1.99	-5.76	-0.17
0.44	8.80	1.30
0.09	6.73	0.93
-0.41	6.97	0.83
0.30	5.99	0.66
0.08	5.91	0.60
-0.15	6.80	0.62
0.27	5.38	0.40
0.08	5.68	0.36
4.53	-10.79	2.05
5.03	-10.85	1.98
5.73	-11.26	1.97
0.27	5.30	0.00
0.08	5.42	-0.05
-1.98	-5.12	-0.10
-2.01	-4.68	-0.05
0.27	5.26	-0.19
0.09	5.50	-0.25
14.45	5.56	-0.43
5.39	-10.56	-0.86
0.29	5.50	-0.40
0.09	5.73	-0.47
26.34	8.00	-0.25
27.49	9.47	1.59
-2.12	-4.50	0.18
-1.92	-4.99	0.29
-2.12	-4.96	0.35
-2.29	-4.86	0.40
-2.22	-5.18	0.57
-2.41	-5.12	0.63
63.04	-9.97	2.88
62.96	-12.29	3.51
63.08	-9.94	5.22
63.01	-12.28	5.86
62.99	-9.90	7.56
7.05	-6.69	1.07
6.75	-6.41	0.69
6.69	-6.36	0.34
6.72	-5.94	0.25
27.64	8.41	1.85
27.24	7.21	2.08
6.79	-6.01	-0.41
6.73	-5.53	-0.48
7.44	-5.68	-0.60
0.47	8.84	1.31
0.12	6.79	0.94
-0.39	6.93	0.82
0.32	5.98	0.66
0.10	5.76	0.58
-0.13	6.81	0.62
0.29	5.38	0.40
0.10	5.64	0.36
25.02	9.65	2.19
26.70	9.21	2.58
28.95	8.81	3.05
0.29	5.29	0.00
0.10	5.41	-0.05
34.25	-7.91	-0.32
15.71	-4.23	0.01
0.29	5.25	-0.19
0.10	5.49	-0.25
63.04	-9.77	2.88
62.97	-12.10	3.51
0.31	5.51	-0.40
0.11	5.73	-0.47
63.08	-9.74	5.22
62.99	-12.08	5.85
-2.07	-4.39	-0.71
-2.05	-4.80	-0.62
-2.05	-4.36	-0.53
-2.00	-5.84	-0.63
-2.01	-5.23	-0.51
-2.00	-4.70	-0.42
-2.02	-4.30	-0.34
-1.98	-5.78	-0.39
-1.97	-5.15	-0.30
-1.98	-4.66	-0.23
-2.15	-4.59	-0.18
-1.96	-5.75	-0.17
-1.99	-5.19	-0.10
-2.00	-4.70	-0.05
26.20	6.95	3.00
25.36	9.80	3.22
24.70	8.53	3.35
24.42	7.44	3.52
-2.12	-4.54	0.19
-1.91	-5.00	0.29
0.49	8.70	1.29
-0.37	6.94	0.82
0.34	5.96	0.66
0.12	5.89	0.59
-0.11	6.82	0.62
0.30	5.34	0.39
0.12	5.69	0.36
-0.16	9.91	0.54
27.13	7.20	4.15
25.28	9.79	4.23
27.41	9.48	4.81
0.31	5.28	0.00
0.12	5.43	-0.05
-0.13	8.70	-0.16
-2.09	-4.92	0.34
0.31	5.27	-0.19
0.12	5.45	-0.25
-2.22	-5.24	0.57
-2.46	-5.26	0.64
0.32	5.50	-0.40
0.13	5.73	-0.47
63.00	-9.70	7.56
7.01	-6.69	1.07
6.68	-6.39	0.34
6.71	-5.96	0.25
28.24	8.62	5.18
27.71	9.59	5.97
6.79	-6.04	-0.41
7.43	-5.71	-0.60
6.68	-6.43	0.34
6.68	-5.97	0.25
27.59	8.42	6.17
7.43	-11.30	-0.87
6.75	-6.05	-0.41
7.41	-5.73	-0.60
34.32	-7.81	-0.32
15.77	-4.20	0.01
50.04	-13.30	1.92
63.11	-9.58	2.89
63.03	-11.91	3.51
63.10	-9.55	5.22
-2.03	-4.34	-0.70
-2.06	-4.87	-0.63
0.53	8.84	1.31
0.16	6.74	0.93
-0.34	6.92	0.82
0.36	5.96	0.66
-0.09	6.81	0.62
0.32	5.34	0.39
0.14	5.76	0.37
5.95	-9.81	-0.63
5.20	-11.24	0.68
6.25	-11.21	-0.58
0.32	5.30	0.00
0.13	5.42	-0.05
-0.08	6.38	-0.12
-2.04	-4.38	-0.53
0.32	5.24	-0.19
0.14	5.45	-0.25
-0.07	6.37	-0.35
-2.05	-6.05	-0.65
0.34	5.51	-0.40
0.15	5.74	-0.47
-2.00	-5.27	-0.52
-1.99	-4.71	-0.42
-2.02	-4.33	-0.35
-1.97	-5.80	-0.40
-1.96	-5.15	-0.30
-2.00	-4.74	-0.23
-2.13	-4.58	-0.18
-1.93	-5.69	-0.17
-1.96	-5.17	-0.10
-2.00	-4.76	-0.05
5.16	-11.18	0.22
4.95	-11.83	-0.12
4.97	-11.92	-0.58
5.86	-11.46	-0.46
-2.10	-4.53	0.19
-1.90	-5.01	0.29
-3.45	-7.44	0.61
-2.22	-5.27	0.58
-2.41	-5.21	0.63
63.10	-11.90	5.86
63.12	-9.52	7.57
7.00	-6.77	1.08
0.55	8.83	1.31
-0.32	6.91	0.82
0.37	5.94	0.66
-0.07	6.80	0.62
0.34	5.31	0.39
0.15	5.78	0.37
5.61	-11.09	-0.80
4.24	-11.31	-0.88
0.34	5.30	0.00
0.15	5.44	-0.05
-0.06	6.30	-0.12
6.68	-6.01	0.25
0.33	5.20	-0.19
0.15	5.44	-0.25
-0.05	6.33	-0.35
4.20	-10.07	-0.90
0.36	5.48	-0.40
0.16	5.74	-0.47
-0.05	6.08	-0.56
6.28	-11.24	-0.12
6.74	-6.07	-0.41
6.73	-5.63	-0.48
7.40	-5.76	-0.61
34.23	-9.00	0.02
63.14	-9.39	2.89
63.01	-11.70	3.50
63.11	-9.35	5.22
63.02	-11.68	5.85
63.07	-9.32	7.56
6.84	-6.66	1.06
5.91	-11.62	3.56
5.90	-11.53	0.01
6.74	-6.11	-0.41
7.41	-5.80	-0.61
-2.02	-4.36	-0.71
-2.06	-4.91	-0.63
-2.02	-4.37	-0.53
-2.05	-6.09	-0.65
-2.01	-5.34	-0.52
-1.98	-4.73	-0.42
0.58	8.86	1.31
0.20	6.78	0.94
-0.30	6.92	0.82
0.39	5.94	0.66
-0.05	6.62	0.60
0.35	5.31	0.39
0.17	5.78	0.37
8.08	-12.27	0.13
6.31	-11.28	0.36
-1.31	30.88	0.27
0.35	5.25	0.00
0.17	5.41	-0.05
-2.02	-4.37	-0.35
0.35	5.22	-0.19
0.17	5.38	-0.24
-0.03	5.76	-0.32
-1.96	-5.86	-0.40
0.37	5.47	-0.40
0.18	5.75	-0.47
-0.03	5.87	-0.54
-2.04	-5.42	-0.32
-2.00	-4.78	-0.23
-2.11	-4.58	-0.18
-2.01	-6.01	-0.18
-1.97	-5.25	-0.10
-2.01	-4.81	-0.05
28.02	7.24	4.51
27.69	7.14	3.39
63.82	9.18	7.13
-2.08	-4.52	0.19
-1.88	-5.03	0.29
-3.45	-7.50	0.61
-2.22	-6.65	0.57
-2.21	-5.89	0.57
-2.25	-5.39	0.59
-2.46	-5.34	0.65
6.81	-6.67	1.05
34.40	-8.93	0.02
34.37	-5.01	0.30
63.09	-9.19	2.88
63.15	-9.16	5.22
0.61	8.85	1.31
0.22	6.87	0.95
-0.28	6.90	0.82
0.41	5.93	0.66
0.18	5.64	0.57
-0.02	6.29	0.57
0.37	5.31	0.39
0.19	5.77	0.37
-0.02	5.67	0.31
4.97	-10.80	2.42
5.49	-10.85	2.36
-1.22	30.83	0.27
0.37	5.21	0.00
0.18	5.47	-0.05
62.96	-11.47	5.84
0.37	5.21	-0.19
0.18	5.32	-0.24
-0.01	5.73	-0.32
62.88	-13.85	6.48
0.39	5.46	-0.40
0.20	5.76	-0.47
-0.01	5.78	-0.53
4.03	-10.80	2.14
4.50	-10.81	2.05
6.76	-6.17	-0.41
6.85	-5.81	-0.49
7.39	-5.82	-0.61
15.31	-12.01	5.31
6.82	-6.71	1.06
4.99	-10.85	1.98
14.94	3.99	-0.56
6.72	-6.17	-0.41
6.74	-5.76	-0.49
7.39	-5.85	-0.61
34.41	-8.82	0.02
-2.02	-4.40	-0.71
-2.07	-4.98	-0.64
-2.04	-4.43	-0.53
-2.03	-6.11	-0.65
-2.01	-5.37	-0.53
-2.00	-4.81	-0.43
-2.02	-4.40	-0.35
-1.96	-5.90	-0.40
0.63	8.80	1.30
-0.26	6.90	0.82
0.43	5.92	0.66
0.20	5.64	0.57
-0.00	5.97	0.54
0.38	5.28	0.39
0.21	5.74	0.37
-0.00	5.70	0.31
14.43	5.60	-0.43
5.68	-11.26	1.97
-1.12	30.88	0.27
0.38	5.22	0.00
0.20	5.38	-0.05
0.00	5.47	-0.10
-2.00	-5.37	-0.32
0.38	5.19	-0.19
0.20	5.33	-0.24
0.00	5.71	-0.31
-1.98	-4.77	-0.23
0.41	5.47	-0.40
0.22	5.79	-0.48
0.01	5.79	-0.53
-2.08	-4.54	-0.18
-1.94	-5.84	-0.17
-1.95	-5.23	-0.10
-2.00	-4.84	-0.05
26.31	8.07	-0.25
29.95	8.01	0.02
-2.09	-4.57	0.19
-1.87	-5.04	0.29
-2.20	-6.65	0.57
-2.18	-5.89	0.57
-2.24	-5.42	0.59
-2.38	-5.21	0.63
34.39	-4.90	0.30
61.52	-13.39	1.74
52.24	-13.37	2.00
63.05	-8.98	2.88
63.05	-11.31	3.50
62.87	-13.65	4.13
63.10	-8.96	5.21
62.90	-11.26	5.83
62.89	-13.65	6.48
0.01	6.53	1.33
0.01	6.49	1.08
0.66	8.79	1.30
0.34	8.84	1.22
-0.24	6.88	0.82
0.44	5.91	0.66
0.22	5.64	0.57
0.01	5.83	0.53
0.40	5.29	0.39
0.21	5.43	0.35
0.01	5.53	0.30
29.98	11.65	0.28
27.05	8.32	1.82
27.28	7.32	2.08
-1.02	30.77	0.27
0.40	5.22	0.00
0.21	5.39	-0.05
0.02	5.40	-0.10
6.74	-6.68	1.05
0.40	5.19	-0.19
0.21	5.32	-0.24
0.02	5.65	-0.31
6.79	-5.81	0.49
0.42	5.50	-0.40
0.24	5.81	-0.48
0.03	5.78	-0.53
24.99	9.73	2.19
26.68	9.29	2.58
6.71	-6.19	-0.41
6.71	-5.76	-0.49
34.55	-4.82	0.30
63.07	-8.79	2.88
63.05	-11.11	3.50
62.90	-13.46	4.13
63.00	-11.08	5.84
-2.03	-4.45	-0.72
-2.08	-5.03	-0.65
-2.05	-4.50	-0.54
-2.05	-6.22	-0.66
-2.00	-5.40	-0.53
-2.00	-4.85	-0.43
-2.00	-4.41	-0.35
-1.95	-5.93	-0.40
-1.99	-5.40	-0.32
-2.00	-4.87	-0.24
-2.06	-4.53	-0.18
-1.97	-6.00	-0.18
0.69	8.77	1.30
0.04	7.70	0.99
-0.21	6.82	0.81
0.46	5.91	0.66
0.23	5.59	0.56
0.03	5.80	0.53
0.42	5.28	0.39
0.23	5.39	0.35
0.03	5.44	0.30
28.79	8.86	3.03
25.99	6.98	2.98
25.27	9.86	3.22
-0.93	30.81	0.27
0.41	5.21	0.00
0.23	5.39	-0.05
0.04	5.41	-0.10
-1.94	-5.25	-0.10
0.41	5.19	-0.19
0.23	5.35	-0.24
0.04	5.56	-0.31
-1.97	-4.81	-0.05
0.44	5.49	-0.40
24.65	8.60	3.34
0.04	5.78	-0.53
-2.09	-4.62	0.19
-1.86	-5.07	0.30
-2.24	-4.95	0.40
-2.20	-6.73	0.58
-2.40	-5.31	0.64
62.97	-13.46	6.48
63.00	-8.71	7.54
24.72	7.62	3.57
27.05	7.27	4.14
6.70	-6.23	-0.41
6.80	-5.88	-0.49
8.87	-8.87	-0.91
6.79	-6.81	0.71
25.20	9.84	4.22
27.71	8.55	5.09
6.76	-6.32	-0.42
7.32	-5.91	-0.61
8.81	-8.87	-0.91
34.56	-4.71	0.30
63.14	-8.60	2.88
63.05	-10.91	3.50
0.71	8.78	1.30
-0.19	6.88	0.82
0.48	5.92	0.66
0.25	5.48	0.55
0.05	5.79	0.53
0.43	5.31	0.39
0.24	5.39	0.35
0.05	5.58	0.31
27.70	9.69	5.97
28.06	7.22	2.37
29.86	6.51	0.55
-0.84	30.80	0.27
0.43	5.19	0.00
0.25	5.35	-0.05
0.05	5.39	-0.10
62.94	-13.26	4.13
0.43	5.14	-0.19
0.25	5.30	-0.24
0.06	5.57	-0.31
62.99	-10.88	5.83
0.46	5.47	-0.40
62.89	-13.24	6.47
0.06	5.78	-0.53
63.06	-8.52	7.55
-2.03	-4.48	-0.72
-2.07	-5.07	-0.65
-2.03	-4.50	-0.54
-2.05	-6.29	-0.67
-1.98	-5.41	-0.53
-2.00	-4.89	-0.43
-2.00	-4.44	-0.35
-1.98	-6.08	-0.41
-2.00	-5.47	-0.32
-1.98	-4.87	-0.24
-2.05	-4.54	-0.18
-1.99	-6.13	-0.18
-1.95	-5.34	-0.10
-1.99	-4.89	-0.05
5.16	-11.24	0.68
-2.08	-4.64	0.19
-1.85	-5.07	0.30
-2.01	-4.94	0.34
-2.22	-4.94	0.40
-2.21	-6.84	0.59
0.74	8.80	1.31
0.08	6.77	0.87
0.51	6.01	0.67
0.26	5.49	0.55
0.07	5.77	0.53
0.45	5.31	0.39
0.26	5.41	0.35
0.07	5.65	0.31
4.92	-11.87	0.35
5.12	-11.17	0.22
4.97	-11.98	-0.12
-0.74	30.83	0.27
0.44	5.18	0.00
0.26	5.37	-0.05
0.07	5.39	-0.10
-2.26	-6.22	0.60
0.44	5.17	-0.19
0.26	5.25	-0.24
0.07	5.56	-0.31
-2.35	-5.25	0.64
0.47	5.46	-0.40
6.64	-6.24	0.92
0.08	5.76	-0.53
6.81	-6.88	0.71
6.73	-6.32	0.25
4.96	-11.99	-0.59
6.73	-6.33	-0.42
7.30	-5.93	-0.61
8.77	-8.89	-0.91
63.14	-8.40	2.88
63.05	-10.71	3.50
62.93	-13.06	4.12
63.12	-8.37	5.21
63.00	-10.68	5.83
62.98	-13.06	6.47
63.04	-8.32	7.54
6.70	-6.34	0.25
5.19	-11.36	-0.69
5.57	-11.10	-0.80
6.74	-6.38	-0.42
6.78	-5.97	-0.50
7.25	-5.93	-0.60
-2.02	-4.50	-0.72
-2.07	-5.12	-0.66
0.77	8.79	1.30
0.09	6.66	0.85
0.53	6.07	0.67
0.28	5.51	0.55
0.08	5.60	0.51
0.47	5.32	0.39
0.28	5.39	0.35
0.08	5.67	0.31
4.21	-11.33	-0.88
4.17	-10.08	-0.90
29.82	7.65	0.27
-0.65	30.87	0.27
0.46	5.18	0.00
0.28	5.35	-0.05
0.09	5.44	-0.10
-2.03	-4.53	-0.54
0.46	5.20	-0.19
0.28	5.28	-0.24
0.09	5.54	-0.30
-2.06	-6.40	-0.68
0.49	5.46	-0.40
-1.98	-5.45	-0.53
0.10	5.75	-0.53
-2.01	-4.97	-0.44
-2.01	-4.49	-0.36
-1.95	-6.07	-0.41
-1.97	-5.44	-0.32
-1.95	-4.83	-0.24
-1.99	-4.46	-0.18
-1.98	-6.16	-0.18
-2.00	-5.52	-0.11
-1.99	-4.94	-0.05
27.67	4.98	-0.25
5.31	-11.60	3.61
5.86	-11.63	3.55
-2.04	-4.57	0.19
-1.83	-5.07	0.30
-1.98	-4.92	0.34
-2.17	-4.88	0.39
-2.21	-6.89	0.59
-2.37	-5.32	0.64
8.64	-8.80	-0.89
34.32	-5.75	-0.64
63.17	-8.21	2.88
0.80	8.86	1.31
0.55	6.05	0.67
0.30	5.49	0.55
0.10	5.58	0.51
0.48	5.30	0.39
0.29	5.37	0.35
0.10	5.68	0.31
25.72	5.60	-0.48
7.22	-10.93	2.04
5.31	-11.61	3.10
-0.55	30.80	0.27
0.47	5.16	0.00
0.29	5.31	-0.05
0.10	5.45	-0.10
63.05	-10.51	3.50
0.48	5.21	-0.19
0.30	5.34	-0.24
0.11	5.52	-0.30
63.03	-12.88	4.13
0.51	5.46	-0.40
0.31	5.52	-0.45
0.11	5.74	-0.53
62.98	-10.48	5.83
63.07	-12.88	6.48
63.02	-8.13	7.53
6.74	-6.40	0.60
6.69	-6.37	0.25
6.72	-6.39	-0.08
6.65	-10.89	2.11
6.12	-10.92	2.20
6.75	-6.43	-0.42
7.24	-5.96	-0.61
8.55	-8.77	-0.89
6.70	-6.41	0.26
6.57	-6.30	-0.08
34.31	-5.64	-0.63
60.62	-7.70	0.53
-2.02	-4.53	-0.73
-2.08	-5.18	-0.66
-2.01	-4.52	-0.54
-2.10	-6.59	-0.70
-2.02	-5.62	-0.55
-1.99	-4.97	-0.44
0.14	7.27	1.21
0.83	8.81	1.31
0.56	6.03	0.67
0.31	5.48	0.55
0.12	5.58	0.51
0.50	5.30	0.39
0.31	5.34	0.34
0.12	5.67	0.31
-0.09	5.95	0.27
5.56	-10.83	2.26
4.93	-10.80	2.42
5.45	-10.85	2.35
-0.10	6.50	0.06
0.49	5.14	0.00
0.30	5.20	-0.05
0.12	5.50	-0.10
-0.09	6.65	-0.19
0.50	5.21	-0.19
0.31	5.29	-0.24
0.12	5.51	-0.30
-2.04	-4.61	-0.37
0.52	5.46	-0.40
0.33	5.51	-0.45
0.13	5.75	-0.53
-1.96	-6.16	-0.42
-1.99	-5.56	-0.32
-1.95	-4.86	-0.24
-2.00	-4.51	-0.18
-1.96	-6.17	-0.18
-1.96	-5.48	-0.11
-2.00	-5.00	-0.05
4.00	-10.80	2.14
4.46	-10.81	2.05
4.95	-10.84	1.97
14.89	4.03	-0.55
-2.09	-4.72	0.19
-2.12	-6.70	0.32
-1.97	-4.95	0.34
-2.18	-4.94	0.40
-2.20	-6.94	0.60
-2.31	-5.25	0.63
63.13	-12.73	1.78
56.56	-13.56	2.16
63.13	-8.01	2.88
63.04	-10.31	3.49
0.43	7.17	1.26
0.17	7.24	1.20
0.86	8.88	1.32
0.58	6.02	0.67
0.33	5.46	0.55
0.13	5.57	0.51
-0.09	7.10	0.58
0.52	5.30	0.39
0.32	5.32	0.34
0.14	5.66	0.31
-0.07	5.80	0.26
14.43	5.65	-0.43
5.64	-11.26	1.96
26.29	8.16	-0.25
-0.07	6.22	0.05
0.51	5.23	0.00
0.31	5.12	-0.05
0.14	5.51	-0.10
-0.07	6.38	-0.18
0.51	5.20	-0.19
0.33	5.28	-0.24
0.14	5.53	-0.30
-0.07	6.38	-0.41
0.54	5.45	-0.40
0.34	5.50	-0.45
0.15	5.75	-0.53
63.01	-12.67	4.12
63.14	-7.98	5.20
63.09	-10.30	5.83
63.08	-12.68	6.48
63.12	-7.94	7.54
29.99	8.12	0.02
29.99	11.76	0.28
27.09	8.43	1.82
6.72	-6.44	-0.42
6.76	-6.02	-0.50
-4.55	-11.44	3.11
7.23	-5.99	-0.61
8.57	-8.85	-0.89
6.97	-7.21	0.74
27.50	7.47	2.10
6.66	-6.91	-0.35
-2.00	-4.54	-0.73
-2.07	-5.21	-0.67
-2.00	-4.53	-0.54
-2.11	-6.70	-0.71
-2.02	-5.67	-0.55
0.46	7.26	1.28
0.19	7.20	1.19
0.89	8.87	1.32
0.60	6.01	0.67
0.34	5.31	0.54
0.15	5.61	0.51
-0.06	6.44	0.53
0.53	5.29	0.39
0.34	5.31	0.34
0.15	5.56	0.30
24.96	9.81	2.19
25.37	8.93	2.45
26.50	8.25	2.79
25.43	10.01	3.24
-0.05	5.75	0.05
0.52	5.16	0.00
0.33	5.16	-0.05
0.16	5.55	-0.10
-0.05	6.28	-0.18
0.53	5.19	-0.19
0.34	5.18	-0.24
0.16	5.50	-0.30
-0.05	6.33	-0.41
0.56	5.46	-0.40
0.36	5.49	-0.45
0.17	5.77	-0.53
-2.00	-5.03	-0.44
-2.06	-4.68	-0.37
-1.97	-6.25	-0.42
-1.97	-5.55	-0.32
-1.99	-5.01	-0.24
-1.98	-4.50	-0.18
-1.96	-6.23	-0.18
-1.96	-5.53	-0.11
-1.97	-4.97	-0.05
24.67	8.69	3.35
25.59	7.97	3.69
27.03	7.35	4.14
-2.07	-4.72	0.19
-2.09	-6.67	0.32
-1.97	-4.97	0.34
-2.12	-4.85	0.39
-2.23	-7.11	0.61
-2.23	-6.32	0.61
-2.30	-5.25	0.63
6.72	-6.48	-0.42
6.77	-6.07	-0.50
0.48	7.25	1.28
0.21	7.20	1.19
0.91	8.88	1.32
0.62	6.00	0.67
0.36	5.40	0.54
0.17	5.54	0.51
-0.04	6.15	0.50
0.55	5.28	0.39
0.35	5.27	0.34
0.17	5.55	0.30
25.12	9.90	4.21
27.24	8.50	5.01
26.95	7.33	5.18
28.05	8.75	6.28
-0.03	5.53	0.05
0.54	5.16	0.00
0.34	5.07	-0.05
0.17	5.56	-0.10
-0.03	5.77	-0.16
0.54	5.18	-0.19
0.35	5.19	-0.24
0.17	5.44	-0.30
-0.03	5.77	-0.37
0.57	5.45	-0.40
0.38	5.50	-0.45
0.19	5.77	-0.53
7.25	-6.04	-0.61
8.52	-8.85	-0.89
34.32	-5.54	-0.63
63.26	-7.83	0.55
63.22	-7.82	2.88
63.09	-10.12	3.49
62.98	-12.47	4.12
63.18	-7.78	5.21
63.08	-10.10	5.83
63.02	-12.47	6.46
63.04	-7.74	7.53
6.79	-7.07	0.72
6.70	-6.99	0.36
7.74	-11.67	3.26
7.13	-11.67	3.32
6.71	-6.51	-0.42
6.76	-6.10	-0.50
7.26	-6.09	-0.61
-1.99	-4.54	-0.73
-2.10	-5.32	-0.68
-1.99	-4.55	-0.54
0.50	7.24	1.27
0.23	7.16	1.19
0.93	8.80	1.31
0.61	8.84	1.22
0.64	6.00	0.67
0.37	5.38	0.54
