X     Y     Z
4.194410302   16.86199562   -1.121513721   
5.930793399   16.08754679   -1.243776449   
4.743587062   14.47214233   -1.250773303   
3.917654706   13.59459832   -1.295271974   
3.382367275   13.57725918   -1.419057893   
3.286359214   8.89573725   -1.037927877   
2.651235191   8.072903438   -1.01066161   
2.141421479   7.422638593   -0.993616466   
1.719954817   6.894885584   -0.984166864   
2.210742116   5.974879955   -0.934958289   
1.866155461   5.671346147   -0.933351843   
1.542044126   5.334575609   -0.921978702   
1.291986641   5.176955422   -0.940546443   
1.697505166   4.577953211   -0.901135352   
1.429767228   4.335961345   -0.887133891   
1.212426349   4.183885972   -0.889963411   
1.006426909   4.033624237   -0.892459122   
1.381207897   3.71181818   -0.884326685   
1.17931727   3.567433521   -0.875666768   
1.008007088   3.477106515   -0.881321635   
0.837260743   3.351146461   -0.878013797   
1.155417647   3.09363268   -0.869869108   
0.996601699   3.006792895   -0.866393256   
0.854097021   2.943314087   -0.870641239   
0.719211188   2.880789477   -0.876927939   
5.013722718   17.23650249   -0.986954446   
4.336351252   17.20708549   -1.145345566   
5.980817131   16.07114662   -1.24392117   
4.778564713   14.42913782   -1.248317711   
3.963245779   13.59589987   -1.296548348   
3.426683882   13.57742967   -1.420167732   
3.310509394   8.877231121   -1.036948693   
2.655975645   8.004412655   -1.003102666   
2.163072366   7.412225302   -0.993106249   
1.737944955   6.877091834   -0.982383376   
2.226639143   5.961581788   -0.933941853   
1.881675901   5.659969013   -0.932425111   
1.558403116   5.329819534   -0.921978702   
1.310518533   5.183469758   -0.942455997   
1.717402341   4.58838084   -0.904220788   
1.45795604   4.376257454   -0.896289461   
1.224429872   4.177326396   -0.889362897   
1.020234836   4.036205278   -0.893718451   
1.38915748   3.698426849   -0.88214748   
1.189639387   3.561951266   -0.87521282   
1.020310331   3.479591777   -0.882740821   
0.853720928   3.372990188   -0.884419031   
1.161151122   3.080119769   -0.86706721   
1.008578213   3.0119531   -0.868767667   
0.856350169   2.917604976   -0.863809418   
0.727105328   2.874850504   -0.875794975   
5.065452928   17.21720707   -0.986734862   
4.391342719   17.20240141   -1.145925279   
6.047280311   16.09847182   -1.247466335   
4.813639604   14.38700057   -1.245944016   
4.013387464   13.61233186   -1.299283485   
3.470293924   13.57456406   -1.420975017   
3.327222831   8.83912258   -1.033684861   
2.678942218   7.991519552   -1.002512104   
2.181029353   7.389382685   -0.990937594   
1.759281046   6.872687121   -0.982520585   
2.244569415   5.953796692   -0.933796656   
1.898402461   5.652296321   -0.932116239   
1.574747476   5.325013298   -0.921978702   
1.327636703   5.184194733   -0.943324017   
1.738422231   4.601488644   -0.907850768   
1.469809688   4.367112107   -0.895335728   
1.243366275   4.194215664   -0.893766665   
1.031885411   4.030214604   -0.893088786   
1.403265308   3.701448348   -0.883890856   
1.200873055   3.5592076   -0.875439795   
1.029599515   3.471787494   -0.881558146   
0.858769965   3.349701173   -0.878999238   
1.168875879   3.072024049   -0.86579358   
1.017504949   3.007930951   -0.868503799   
0.874330682   2.945395437   -0.872827362   
0.733065689   2.861457734   -0.872396021   
5.122806883   17.21689875   -0.987613196   
4.449094471   17.20817288   -1.147213456   
6.074364865   16.02108872   -1.242908248   
4.855521791   14.36555558   -1.245371096   
4.058545172   13.61140737   -1.300377588   
3.513420082   13.56963225   -1.421580362   
3.354678233   8.829802012   -1.03379358   
2.703447269   7.983262637   -1.002512103   
2.188086479   7.330385234   -0.983921413   
1.784583699   6.88355781   -0.984852794   
2.263176805   5.947806766   -0.933941852   
1.909703294   5.628668551   -0.929181605   
1.589380985   5.31448635   -0.920995999   
1.341557315   5.172471311   -0.941935231   
1.754983715   4.602565711   -0.909121242   
1.484780743   4.367229205   -0.896289461   
1.25763484   4.195074036   -0.894767489   
1.043754244   4.025136979   -0.892668991   
1.41670724   3.702594784   -0.885198402   
1.217127898   3.571177571   -0.87929836   
1.048340124   3.495601929   -0.888417627   
0.878785293   3.384573789   -0.888853496   
1.1765619   3.063909817   -0.864520007   
1.028599707   3.010271815   -0.870086779   
0.877001829   2.921508782   -0.866542169   
0.739432529   2.849912112   -0.869563549   
5.184233905   17.22978491   -0.989260132   
4.504647403   17.20506128   -1.147921917   
6.133825261   16.02939266   -1.245006333   
4.900538199   14.35342074   -1.245616666   
4.111496705   13.63607513   -1.303933243   
3.556296254   13.56360126   -1.422084856   
3.379260714   8.812971616   -1.03303207   
2.727605397   7.973991386   -1.002393967   
2.218017163   7.348324895   -0.987238172   
1.80443621   6.873259714   -0.984166863   
2.279640357   5.936217216   -0.933215808   
1.9298455   5.631195187   -0.930571705   
1.611674799   5.329414306   -0.924435603   
1.341659292   5.108322898   -0.930998614   
1.772274538   4.605419818   -0.910754707   
1.496259294   4.357083218   -0.895144995   
1.269362377   4.187445557   -0.89396682   
1.054608356   4.016241702   -0.891409662   
1.431223984   3.706424952   -0.887159693   
1.231248504   3.576635486   -0.881568106   
1.058495669   3.490509664   -0.887944546   
0.88645404   3.371551343   -0.886143572   
1.194342574   3.081925869   -0.870633296   
1.034054036   2.996160227   -0.866920878   
0.875902538   2.885667452   -0.856704421   
0.748416174   2.848557575   -0.869846845   
5.237360551   17.21475456   -0.989315028   
4.563036438   17.21238043   -1.149338958   
6.17399141   15.9872371   -1.243197569   
4.945850229   14.34208735   -1.245944016   
4.1623148   13.65292696   -1.306759577   
3.599678946   13.55935786   -1.422791171   
3.399107752   8.784021331   -1.030856143   
2.751083768   7.962770244   -1.002039677   
2.235918845   7.326307418   -0.985197071   
1.826532361   6.871520767   -0.984715584   
2.288903457   5.906131978   -0.929585766   
1.945496825   5.620579605   -0.929799466   
1.629748298   5.330105236   -0.925418307   
1.362386857   5.123217311   -0.934470583   
1.787819445   4.603627965   -0.911480694   
1.506081164   4.342270307   -0.893046851   
1.279906446   4.176037084   -0.892365478   
1.068683618   4.019601997   -0.892878861   
1.442942783   3.702925989   -0.887377608   
1.240296725   3.56732181   -0.880206258   
1.06578165   3.476098454   -0.885106172   
0.887568888   3.334162889   -0.877028353   
1.197452775   3.062036545   -0.86604833   
1.042288776   2.99024127   -0.866129389   
0.889831462   2.899519574   -0.861623295   
0.757151855   2.846248047   -0.869846845   
5.296314556   17.21864645   -0.990467901   
4.618926255   17.20986665   -1.150111911   
6.232426661   15.9923832   -1.245078693   
4.988188686   14.32214076   -1.24553477   
4.217087714   13.68196523   -1.310771088   
3.641519903   13.54921067   -1.42289214   
3.407238211   8.725400686   -1.02519859   
2.767648701   7.931791248   -0.999205001   
2.257800379   7.31751779   -0.984941963   
1.841170419   6.841971644   -0.981285933   
2.304129435   5.891710236   -0.928424131   
1.962731465   5.614584463   -0.929799466   
1.638226926   5.299632853   -0.920995999   
1.371697989   5.095239684   -0.930130651   
1.804446433   4.604530109   -0.912751165   
1.517773407   4.332997169   -0.892093176   
1.287782666   4.15618133   -0.888962533   
1.079485862   4.010639295   -0.891619531   
1.45179641   3.69212388   -0.885852148   
1.245104888   3.546040818   -0.875893744   
1.075002802   3.468172108   -0.883923497   
0.902585382   3.349204242   -0.881709163   
1.213940423   3.076338671   -0.871142739   
1.057222807   3.003406862   -0.870878211   
0.903283473   2.911475896   -0.865995597   
0.762638415   2.831873226   -0.866164652   
5.355934644   17.22424677   -0.991730566   
4.676412889   17.21294849   -1.15127134   
6.268320897   15.93977228   -1.242474089   
5.02383805   14.28326507   -1.243488542   
4.263783421   13.68417513   -1.312229852   
3.682287628   13.53509468   -1.422589349   
3.42998258   8.704733769   -1.024001848   
2.796590398   7.936374186   -1.000858551   
2.278762983   7.305822224   -0.984304192   
1.863193978   6.840113806   -0.981834654   
2.318199115   5.874490283   -0.926826907   
1.981262974   5.612263235   -0.930417269   
1.654184082   5.293640236   -0.920832205   
1.379814646   5.063452518   -0.925096324   
1.825073523   4.615433296   -0.916018154   
1.531059695   4.328320143   -0.892093175   
1.29847775   4.145665757   -0.887561344   
1.094869328   4.018629007   -0.894138246   
1.462396958   3.685837986   -0.885416317   
1.256303598   3.543121978   -0.876120717   
1.070821896   3.417571579   -0.871860292   
0.907500082   3.326784202   -0.876535661   
1.223372697   3.072599741   -0.871142737   
1.076770096   3.029232574   -0.87932055   
0.905015111   2.885744546   -0.859163831   
0.768043848   2.817491368   -0.862482454   
5.41354337   17.22297435   -0.992608959   
4.732109849   17.2091061   -1.151979801   
6.309100849   15.9000716   -1.240882406   
5.069302623   14.27248022   -1.243897788   
4.31172886   13.69002655   -1.314053278   
3.723266963   13.52181547   -1.422387646   
3.451897759   8.682160812   -1.02258743   
2.824920307   7.938983385   -1.002275948   
2.296692609   7.28460794   -0.982390645   
1.881801009   6.825771335   -0.980600004   
2.342066878   5.882057627   -0.929150175   
1.997808436   5.604297097   -0.930108338   
1.669822654   5.286659033   -0.920504618   
1.389320334   5.037359654   -0.921103645   
1.840318114   4.612552886   -0.916562645   
1.546312802   4.329149031   -0.893237585   
1.310303242   4.138860816   -0.88696083   
1.105633787   4.009595537   -0.892878859   
1.474060765   3.682240111   -0.885634232   
1.268809301   3.543835549   -0.87725559   
1.087755629   3.434648426   -0.877064016   
0.91744434   3.32305011   -0.876289314   
1.233875017   3.071524024   -0.871906871   
1.079541634   3.007757561   -0.874044109   
0.918805589   2.898542934   -0.863809419   
0.780765271   2.829913833   -0.867014374   
5.470589851   17.2196071   -0.993377501   
4.7875597   17.20412066   -1.152623889   
6.339316988   15.83434359   -1.237264881   
5.112056849   14.25404633   -1.243652217   
4.354615477   13.67958101   -1.314326745   
3.763665643   13.5064958   -1.421984004   
3.474446938   8.661381112   -1.021390688   
2.84892768   7.929344912   -1.002157812   
2.32294537   7.289812724   -0.984048967   
1.901668572   6.816149471   -0.980051283   
2.361945939   5.879435304   -0.929876161   
2.014992852   5.598141392   -0.930108338   
1.687234045   5.285270075   -0.921159792   
1.407415663   5.042559136   -0.922839571   
1.854460642   4.606884751   -0.916562643   
1.558254983   4.320690912   -0.892474644   
1.322696341   4.133887775   -0.886760674   
1.118455341   4.008068335   -0.893298656   
1.48242692   3.67046099   -0.883890856   
1.280999926   3.543589825   -0.878163488   
1.097991649   3.430369759   -0.876827504   
0.926852641   3.317419525   -0.875550218   
1.242929222   3.066827993   -0.87165218   
1.091721874   3.012593318   -0.87641852   
0.929748212   2.902122971   -0.865722368   
0.79511754   2.847826952   -0.873245743   
5.531634567   17.22841199   -0.99485975   
4.847892265   17.2162474   -1.154427406   
6.383010497   15.80279754   -1.236324319   
5.14524429   14.20924562   -1.241114847   
4.399918176   13.67658405   -1.315329652   
3.803465317   13.48914043   -1.421378541   
3.494663711   8.63501609   -1.019541155   
2.867146009   7.903765184   -1.000031835   
2.344995235   7.281707457   -0.983921412   
1.91449768   6.781684307   -0.975935702   
2.375141453   5.860240849   -0.927988541   
2.032832922   5.593790395   -0.930417268   
1.707984437   5.294151609   -0.923616636   
1.418061617   5.021158167   -0.919714857   
1.862665286   4.586595688   -0.913658646   
1.569824032   4.311278039   -0.891520912   
1.336879798   4.134471678   -0.887761498   
1.132340843   4.010263702   -0.894558041   
1.494785552   3.668607082   -0.8845446   
1.291531619   3.538728181   -0.877936513   
1.108211636   3.426060688   -0.876590993   
0.929116324   3.286581545   -0.86815954   
1.239523581   3.031672156   -0.862736936   
1.105930442   3.022817425   -0.880375851   
0.939536289   2.902002376   -0.86654217   
0.80984777   2.866601589   -0.879760412   
5.587854592   17.22180684   -0.995463546   
4.904515896   17.21472842   -1.155329105   
6.434849872   15.79145352   -1.236975441   
5.195999842   14.21305024   -1.242833725   
4.443395978   13.66775672   -1.315785509   
3.843466836   13.4726247   -1.420874047   
3.520387527   8.622412937   -1.019323597   
2.888307375   7.886539056   -0.998968845   
2.371621259   7.287683093   -0.985707405   
1.929853807   6.756729575   -0.973191981   
2.392360329   5.851094647   -0.927698147   
2.051005817   5.590309986   -0.930880576   
1.732168604   5.313272638   -0.92787521   
1.425072068   4.987429434   -0.914333333   
1.880083305   4.589049705   -0.915292171   
1.584059553   4.309205945   -0.892093176   
1.349557944   4.130350993   -0.8877615   
1.133627494   3.96822612   -0.885952443   
1.507146732   3.666712011   -0.885198403   
1.305412612   3.54297375   -0.879979283   
1.113887547   3.407867902   -0.872806456   
0.936529919   3.274397323   -0.86569596   
1.264304543   3.065401479   -0.873435194   
1.114864944   3.018505476   -0.880112041   
0.937368509   2.865278669   -0.856431136   
0.814157925   2.848427419   -0.87494525   
5.644707817   17.21691583   -0.996177251   
4.961452719   17.21398517   -1.156295297   
6.476820676   15.75595519   -1.235745558   
5.241650863   14.20265311   -1.243324868   
4.491522899   13.67298216   -1.317608934   
3.860229841   13.37569554   -1.41189401   
3.530924372   8.572967783   -1.014754068   
2.892172913   7.822689581   -0.992000348   
2.387462138   7.260586635   -0.983028534   
1.952498778   6.75743861   -0.974152272   
2.407659038   5.837324894   -0.926681709   
2.068490165   5.584917815   -0.931035071   
1.733337822   5.262021933   -0.919849445   
1.438452255   4.976411407   -0.913118173   
1.893026727   4.580533464   -0.914747624   
1.599663117   4.310767699   -0.893428319   
1.360994713   4.122469379   -0.886960828   
1.142810471   3.954397169   -0.883643655   
1.522874549   3.672889398   -0.887813438   
1.318313227   3.544428965   -0.88134113   
1.131650275   3.426577179   -0.878483261   
0.954113636   3.297576421   -0.872593945   
1.265902678   3.042758708   -0.868086092   
1.110641713   2.97891887   -0.869559099   
0.949777467   2.873349382   -0.859710403   
0.811970771   2.808142658   -0.863332179   
5.697502168   17.19951777   -0.996177251   
5.020106546   17.2188013   -1.157647964   
6.526275021   15.73877443   -1.235962638   
5.294593211   14.21172084   -1.24553477   
4.53815537   13.67331468   -1.318976503   
3.89483529   13.34182372   -1.409573245   
3.564455553   8.57953608   -1.016821157   
2.91095106   7.799824625   -0.990228777   
2.409100601   7.251345244   -0.982773308   
1.975722176   6.759973369   -0.975386981   
2.427456758   5.834478388   -0.927407753   
2.083538835   5.572992853   -0.930108338   
1.754457509   5.271655596   -0.922470083   
1.448185497   4.953069907   -0.909646261   
1.914638391   4.592857719   -0.918377605   
1.61150349   4.302162676   -0.892665379   
1.372705864   4.115486483   -0.886360313   
1.160972319   3.971518658   -0.888261288   
1.531123107   3.660996884   -0.886070062   
1.329181091   3.540367747   -0.88134113   
1.137852157   3.410185631   -0.875171804   
0.964498152   3.295564094   -0.872840294   
1.265128716   3.014785202   -0.861208612   
1.128948566   2.999872067   -0.876682331   
0.959197738   2.872246798   -0.86025692   
0.82192832   2.810240723   -0.864748386   
5.762284175   17.21793914   -0.998263414   
5.076296472   17.21480492   -1.158420799   
6.572220861   15.71315686   -1.235528478   
5.334310492   14.18514918   -1.244634501   
4.583565205   13.66971367   -1.31997941   
3.870951573   13.11035194   -1.386366295   
3.576929193   8.535555212   -1.012904535   
2.935916903   7.793645034   -0.990583068   
2.419659237   7.20912951   -0.978053394   
1.996171258   6.752930287   -0.975249771   
2.444962384   5.82609137   -0.927262556   
2.096440799   5.555482096   -0.928254932   
1.779110877   5.291494421   -0.926892447   
1.463374507   4.948603909   -0.909646262   
1.933294081   4.597840438   -0.92055556   
1.623653339   4.29444396   -0.892093175   
1.387515463   4.117755064   -0.8877615   
1.179249943   3.98856518   -0.892878859   
1.539313065   3.649088238   -0.884326685   
1.34003656   3.536273246   -0.88134113   
1.146447005   3.40115441   -0.873752561   
0.974604334   3.292589395   -0.872840292   
1.272110444   3.005546456   -0.859680289   
1.133009191   2.982868635   -0.872724999   
0.957857658   2.839212194   -0.851238976   
0.830546159   2.807705944   -0.864748387   
5.816040245   17.20301759   -0.998428042   
5.136786914   17.22497005   -1.160159942   
6.597524487   15.63870198   -1.231259832   
5.383463445   14.18362518   -1.245944016   
4.634108153   13.6810533   -1.322441082   
3.931081238   13.16514592   -1.393429326   
3.605808007   8.530950942   -1.013666046   
2.957343437   7.778104059   -0.989756351   
2.444631442   7.210126086   -0.979201499   
2.016312219   6.744876222   -0.974975411   
2.45202653   5.793050774   -0.923196864   
2.110661705   5.541637616   -0.927019327   
1.787722576   5.263593152   -0.922961462   
1.475445873   4.933712247   -0.907736708   
1.949694627   4.597319355   -0.921644536   
1.633321145   4.280271119   -0.890185767   
1.401089181   4.116261282   -0.888362016   
1.189520554   3.978371318   -0.891409663   
1.535981865   3.610222156   -0.876045692   
1.349139901   3.527597149   -0.880206257   
1.154683948   3.391182736   -0.872096861   
0.990259746   3.30815329   -0.877767449   
1.291575942   3.02564256   -0.86655777   
1.142845752   2.981179863   -0.87325262   
0.973390179   2.856291602   -0.857250939   
0.848776347   2.837303184   -0.874662009   
5.874277119   17.20115508   -0.999361331   
5.191913338   17.21677257   -1.160675165   
6.655234514   15.64133102   -1.233068594   
5.430874535   14.17727976   -1.246844403   
4.682506742   13.68561555   -1.324264507   
3.94240726   13.05682765   -1.383238362   
3.632743296   8.521676871   -1.01388372   
2.976567486   7.756942483   -0.988220936   
2.464169345   7.195085569   -0.978180948   
2.035849193   6.734866079   -0.974426691   
2.476391585   5.800969872   -0.925665329   
2.128716646   5.537902907   -0.927482635   
1.807704071   5.269281134   -0.924926984   
1.493996063   4.940474138   -0.909819831   
1.966110145   4.596741373   -0.922733515   
1.651031303   4.287148597   -0.89266538   
1.414348158   4.113796538   -0.88876238   
1.202569259   3.977510958   -0.892039328   
1.547050612   3.605492684   -0.876045691   
1.357501299   3.517081507   -0.878617437   
1.172034525   3.407837995   -0.877300586   
0.99619272   3.291185564   -0.874072083   
1.298175719   3.015448362   -0.864774697   
1.149898312   2.972262079   -0.871669699   
0.98308784   2.85602043   -0.858070741   
0.85053506   2.811736667   -0.867580859   
5.931905537   17.19721107   -1.000184829   
5.24732866   17.20935464   -1.16125488   
6.682737936   15.5731787   -1.229306349   
5.477219444   14.1679888   -1.24749922   
4.727073448   13.67871501   -1.324993829   
3.912726886   12.81630191   -1.359022425   
3.652195654   8.494966156   -1.01203407   
3.003220202   7.755181861   -0.989165789   
2.487204587   7.190303622   -0.978563669   
2.054185655   6.721010153   -0.973329191   
2.493785834   5.792436509   -0.925520133   
2.150699078   5.544241734   -0.929644972   
1.818693824   5.248796365   -0.922306288   
1.508858203   4.934925426   -0.909646261   
1.977087631   4.583463639   -0.921281544   
1.664531963   4.282978097   -0.892856115   
1.427926701   4.112214299   -0.889362895   
1.21476649   3.973802818   -0.892039328   
1.563918718   3.614165034   -0.879314472   
1.367578254   3.51108518   -0.878163488   
1.187903901   3.419829412   -0.881321636   
1.009688724   3.299234742   -0.877028353   
1.318203769   3.036288218   -0.871906871   
1.143226084   2.928286827   -0.859797649   
1.002585069   2.883883219   -0.867361972   
0.868413702   2.839378606   -0.87692794   
5.998434106   17.21853505   -1.002490575   
5.304217338   17.20652524   -1.162156697   
6.73246491   15.55718031   -1.229668149   
5.510518118   14.12512029   -1.245207421   
4.770657851   13.66884987   -1.325449686   
3.832901293   12.41827533   -1.318056988   
3.68021781   8.488281982   -1.01257814   
3.011818463   7.707086371   -0.984205134   
2.507616964   7.1779575   -0.97792584   
2.075380687   6.716569284   -0.973603552   
2.512333146   5.786573288   -0.925810526   
2.164817299   5.530257154   -0.928409367   
1.830226558   5.230156363   -0.920013238   
1.523991235   4.930273065   -0.909646261   
1.993493752   4.58278712   -0.922370521   
1.673004882   4.265971   -0.890376502   
1.441508688   4.110588063   -0.889963413   
1.234169611   3.993410475   -0.897286622   
1.576170399   3.612033516   -0.879968273   
1.371218533   3.488745107   -0.873623999   
1.193887456   3.403333015   -0.87801018   
1.025821565   3.315565028   -0.882201858   
1.329839674   3.037544909   -0.873435194   
1.162457335   2.950791338   -0.867448556   
1.019075809   2.902576758   -0.873920452   
0.869754718   2.812878649   -0.869563549   
6.06249836   17.23207456   -1.004357035   
5.361137907   17.20351026   -1.163058397   
6.780162068   15.53645203   -1.229668149   
5.547986292   14.09330998   -1.243897788   
4.829122422   13.70110986   -1.33000825   
3.870685617   12.40550782   -1.317956018   
3.695490372   8.452359442   -1.009640586   
3.044191857   7.719980614   -0.987039811   
2.530616649   7.173036576   -0.978308502   
2.092137732   6.697878996   -0.971820121   
2.529280751   5.777025873   -0.925520133   
2.180321952   5.519913573   -0.927791564   
1.858425446   5.258931502   -0.926073482   
1.539110013   4.925574351   -0.909646261   
2.008334253   4.57845072   -0.922733513   
1.680666844   4.247126512   -0.88751536   
1.453131805   4.103375557   -0.889362896   
1.24262508   3.977473146   -0.89455804   
1.601788377   3.640233443   -0.888031353   
1.391968343   3.509870263   -0.879979284   
1.201078698   3.390495491   -0.875644829   
1.029913477   3.292977411   -0.877028354   
1.344620028   3.045835723   -0.87700128   
1.185400312   2.982168907   -0.877737629   
1.028297493   2.900343197   -0.874193738   
0.879810988   2.814773733   -0.870979811   
6.119682802   17.22562639   -1.005070741   
5.418689271   17.20220942   -1.164088961   
6.822974591   15.50462237   -1.228799829   
5.593037643   14.0808539   -1.244307034   
4.880817797   13.71343651   -1.332652192   
3.88029882   12.30343577   -1.308370518   
3.725414559   8.450078095   -1.010728608   
3.069330477   7.714295247   -0.987512237   
2.555939944   7.174581934   -0.979584219   
2.105817212   6.669703367   -0.968664889   
2.547391929   5.770144302   -0.925665331   
2.195417754   5.508609508   -0.927019326   
1.876208647   5.257850797   -0.926892449   
1.553027702   4.91707323   -0.908951868   
2.021973448   4.57136853   -0.922552018   
1.693688968   4.241950418   -0.887515361   
1.464724271   4.096130499   -0.88876238   
1.25423309   3.971777215   -0.894138244   
1.615323852   3.640654577   -0.889338899   
1.404538997   3.510104315   -0.881114157   
1.207875222   3.376731334   -0.873042968   
1.028617898   3.25376212   -0.8674205   
1.353564925   3.040812586   -0.876746587   
1.191671535   2.971355999   -0.875627029   
1.029733599   2.87634473   -0.867908487   
0.888153495   2.811146901   -0.870696571   
6.171152823   17.20301095   -1.004851157   
5.478402564   17.20737584   -1.165570376   
6.877386751   15.4991154   -1.230029831   
5.656231263   14.11358422   -1.248727075   
4.923540529   13.70027278   -1.332834583   
3.874516806   12.15497548   -1.293840932   
3.742437768   8.418625135   -1.008335006   
3.092243263   7.702999287   -0.987275965   
2.57928198   7.170439941   -0.980094436   
2.123258402   6.653774727   -0.967293028   
2.565484827   5.763205361   -0.925810526   
2.210464488   5.497264774   -0.926247029   
1.886645925   5.236292201   -0.924108017   
1.571400177   4.922605326   -0.910861423   
2.038792514   4.571430632   -0.92382255   
1.708529071   4.241286968   -0.888469094   
1.475287827   4.086088187   -0.887561346   
1.265817913   3.96604779   -0.893718449   
1.61612333   3.612518953   -0.883672942   
1.417853314   3.512100364   -0.882702978   
1.213938476   3.361129785   -0.869968082   
1.052164156   3.29305818   -0.878752834   
1.349821025   3.007531894   -0.868340784   
1.194269715   2.951591497   -0.87087821   
1.028089314   2.844223191   -0.85916383   
0.892981341   2.796531936   -0.867014374   
6.232402294   17.20746593   -1.006223613   
5.540032212   17.21803486   -1.167438265   
6.924090452   15.4761222   -1.229885111   
5.679330555   14.04627063   -1.244307034   
4.964869938   13.68323082   -1.332652193   
3.896841429   12.09662921   -1.288896846   
3.762149475   8.393497273   -1.006703031   
3.104678552   7.665864821   -0.983732707   
2.593481371   7.141051217   -0.977160398   
2.145486033   6.65288591   -0.968116168   
2.581128544   5.750794558   -0.925084484   
2.225462389   5.485879851   -0.925474792   
1.902027283   5.228625183   -0.92378043   
1.584378499   4.911200059   -0.90964626   
2.052001291   4.563360116   -0.923459556   
1.721533035   4.236025231   -0.888469093   
1.487816782   4.081542724   -0.887561345   
1.277079264   3.959354085   -0.893088785   
1.622784652   3.597757485   -0.881275763   
1.427152223   3.504126069   -0.88179508   
1.229237339   3.371082037   -0.873516049   
1.060177623   3.283358855   -0.877028354   
1.366217503   3.01923488   -0.872925752   
1.20660029   2.955950975   -0.873252621   
1.042086825   2.855513945   -0.863536187   
0.901556769   2.793779343   -0.867014376   
6.297509387   17.22202546   -1.008199866   
5.600544591   17.22468406   -1.169048545   
6.963745643   15.43753198   -1.228510508   
5.716750745   14.01493762   -1.243079296   
5.00751113   13.66980461   -1.332834583   
3.847705044   11.81972788   -1.26064484   
3.78010461   8.364703814   -1.00463594   
3.119544093   7.635161327   -0.981016225   
2.608890264   7.115367879   -0.974736634   
2.168035239   6.652864838   -0.969076459   
2.593864605   5.732031651   -0.923342061   
2.240785536   5.475368833   -0.92485699   
1.911257919   5.204244899   -0.920504619   
1.601880289   4.91380702   -0.91103505   
2.057464665   4.538234874   -0.919648079   
1.732286725   4.225274001   -0.887324625   
1.501008539   4.078798142   -0.887961652   
1.288008333   3.951699433   -0.892249197   
1.635026846   3.595427227   -0.881929565   
1.437155704   3.497929503   -0.881341131   
1.246622713   3.386442913   -0.878483262   
1.069945197   3.279169257   -0.876782006   
1.378684923   3.022067556   -0.874963517   
1.198401636   2.910315336   -0.860852948   
1.041198663   2.826127234   -0.855611332   
0.910421035   2.79191186   -0.867297615   
6.353428303   17.21105264   -1.008693988   
5.660215305   17.22827713   -1.170465585   
7.013139381   15.42063438   -1.228872189   
5.750998591   13.97613484   -1.241196625   
5.052534603   13.66278269   -1.3336551   
3.877732169   11.78896645   -1.258626865   
3.804100663   8.349449039   -1.004200708   
3.130845088   7.596175994   -0.977236694   
2.632773276   7.112911639   -0.975502077   
2.18378876   6.632069299   -0.967018668   
2.608973984   5.718645879   -0.922470878   
2.258327223   5.470295049   -0.925165862   
1.92412909   5.190032091   -0.919030478   
1.62649942   4.937865825   -0.916416514   
2.06892531   4.526534819   -0.918559101   
1.747117307   4.224475166   -0.888278358   
1.509762011   4.06407099   -0.885759795   
1.299820087   3.94680031   -0.892039327   
1.644016035   3.585958299   -0.880839934   
1.443778808   3.483607237   -0.878844412   
1.252944866   3.37167302   -0.875644829   
1.078786703   3.272189554   -0.875796564   
1.37865656   2.997616852   -0.869104975   
1.218054842   2.932457638   -0.8685038   
1.056235182   2.840050056   -0.860803435   
0.922583764   2.800036117   -0.87069657   
6.429561315   17.25416783   -1.01237219   
5.719331902   17.22977345   -1.171753761   
7.071224064   15.42261889   -1.230753312   
5.806076175   13.98788095   -1.243815891   
5.0958205   13.65094984   -1.334019762   
3.922981089   11.80439376   -1.261552976   
3.827208947   8.332318712   -1.003547918   
3.153372794   7.584701169   -0.977000481   
2.647293117   7.085289727   -0.972823146   
2.200060327   6.613119495   -0.965235238   
2.62733311   5.712412505   -0.922761272   
2.270161698   5.451483923   -0.92315802   
1.938313955   5.179484607   -0.918211509   
1.634177561   4.910426582   -0.91225021   
2.054406538   4.458539678   -0.906035749   
1.756290153   4.210035776   -0.886370951   
1.521191265   4.056667921   -0.885159279   
1.321800594   3.972481108   -0.898755819   
1.663198906   3.598616108   -0.885198403   
1.447698177   3.462987699   -0.874758872   
1.262259413   3.365084077   -0.874935236   
1.085757766   3.259669349   -0.873333043   
1.383372341   2.983722656   -0.866303021   
1.213254571   2.895790011   -0.858742405   
1.063591048   2.833194063   -0.859710405   
0.92874646   2.789912863   -0.868430581   
6.475083787   17.2147362   -1.011219318   
5.776924496   17.2263387   -1.172719953   
7.121435795   15.40718869   -1.231259832   
5.845498782   13.96172839   -1.243079296   
5.13978399   13.64084256   -1.334566812   
3.910729139   11.64799985   -1.246115255   
3.843982798   8.301595031   -1.001263153   
3.172019111   7.564002269   -0.975583201   
2.678117707   7.101263484   -0.976139906   
2.218445436   6.600705118   -0.964412157   
2.648175711   5.711506193   -0.923922908   
2.281136733   5.430829679   -0.920841246   
1.952801027   5.169822482   -0.917556394   
1.653000896   4.916591374   -0.914333333   
2.042390312   4.396920156   -0.894782929   
1.775289589   4.219104309   -0.889422768   
1.532589292   4.049232769   -0.884558761   
1.324012816   3.938750739   -0.892039329   
1.673819311   3.592611763   -0.884980488   
1.453396561   3.446863857   -0.871808203   
1.266728823   3.345748177   -0.870914187   
1.095753126   3.256322881   -0.873333042   
1.401527519   2.998737712   -0.871906871   
1.244285326   2.944475343   -0.874307919   
1.069210626   2.821821789   -0.857250938   
0.937912825   2.788868442   -0.868997064   
6.540271034   17.22746042   -1.013140732   
5.831668427   17.21420397   -1.173106429   
7.165721987   15.37893952   -1.230753312   
5.887142087   13.94097492   -1.242833726   
5.183733197   13.63059449   -1.335113864   
3.951239663   11.65007934   -1.247628736   
3.863126881   8.276251348   -0.999631178   
3.208749302   7.586244802   -0.979717022   
2.690717833   7.068913015   -0.972823147   
2.238048601   6.591992321   -0.964137797   
2.664848002   5.701561749   -0.923632454   
2.295474969   5.418347324   -0.919914513   
1.967598413   5.161041427   -0.917065013   
1.665226682   4.903104639   -0.912770977   
2.048781058   4.375493069   -0.891697434   
1.774419527   4.181107429   -0.882556135   
1.547102748   4.050003371   -0.885759795   
1.321943602   3.893008719   -0.882594196   
1.686492962   3.590993184   -0.885852147   
1.457866309   3.428049061   -0.868176611   
1.282189697   3.355460334   -0.874462154   
1.102619082   3.243769747   -0.870869464   
1.40495115   2.982176658   -0.868340785   
1.250287431   2.933545363   -0.872197319   
1.088170685   2.845482579   -0.865449079   
0.935358668   2.753287273   -0.85880026   
6.598809769   17.222234   -1.014019067   
5.887037951   17.20378527   -1.173621652   
7.207782417   15.3460501   -1.229885111   
5.931446688   13.92651509   -1.243161074   
5.228024798   13.62113548   -1.33575211   
3.938274546   11.49578141   -1.232392835   
3.885537415   8.258064355   -0.998869669   
3.225384689   7.560837336   -0.97770918   
2.713103633   7.062476139   -0.973078313   
2.257619542   6.58322077   -0.963863377   
2.682327696   5.693359501   -0.923632455   
2.313252213   5.414004913   -0.920377879   
1.982360066   5.152218754   -0.916573633   
1.680580962   4.898904195   -0.912944604   
2.057578041   4.359404476   -0.889700976   
1.785693612   4.172033908   -0.881793194   
1.558110993   4.041581367   -0.884959127   
1.340225287   3.907431504   -0.886792033   
1.691238232   3.572570442   -0.882583309   
1.472983179   3.434300714   -0.870900304   
1.279892448   3.318875031   -0.865946974   
1.119489642   3.260538147   -0.876289314   
1.414923295   2.979599371   -0.868850226   
1.250520697   2.909313834   -0.866129389   
1.082694991   2.805336436   -0.854244956   
0.956563711   2.787596696   -0.870413329   
6.671061415   17.25219757   -1.016983564   
5.94435438   17.19884773   -1.174523469   
6.927062366   14.63154611   -1.174319992   
5.965491259   13.88810598   -1.241360418   
5.274824588   13.61803211   -1.337028484   
3.965717062   11.46108034   -1.229971218   
3.910002523   8.244308449   -0.998651994   
3.238755008   7.528102173   -0.974756425   
2.739418839   7.06614141   -0.974736635   
2.278454322   6.578135538   -0.964137796   
2.699357612   5.684209611   -0.923487258   
2.329460266   5.405975446   -0.920223444   
2.010655086   5.178299002   -0.92230629   
1.696247546   4.895586261   -0.913291801   
2.066295744   4.34330331   -0.887704519   
1.798095731   4.165634807   -0.881602402   
1.572634498   4.042260616   -0.88616016   
1.351566699   3.90145364   -0.886372237   
1.690002175   3.541821033   -0.876263607   
1.48389918   3.430659496   -0.871127279   
1.30804008   3.361111951   -0.87801018   
1.135203359   3.273570632   -0.880723722   
1.415290733   2.956927256   -0.863501126   
1.268263839   2.925818563   -0.87219732   
1.118875688   2.872813703   -0.875833344   
0.955689663   2.757463812   -0.861915971   
6.730492843   17.24839285   -1.01797169   
6.003998235   17.20031639   -1.175876019   
6.885151066   14.42839595   -1.159705171   
6.003317704   13.85876475   -1.240378134   
5.320204863   13.61106004   -1.337940197   
3.96869591   11.35681769   -1.220083045   
3.924559079   8.209852403   -0.995932114   
3.266973637   7.529972846   -0.976291841   
2.753134841   7.037383061   -0.971930208   
2.298297979   6.570179636   -0.964000588   
2.709094668   5.659837479   -0.920873652   
2.348003225   5.403333614   -0.920995681   
2.022573638   5.162002125   -0.920504618   
1.714186476   4.898725063   -0.914854158   
2.0740835   4.325416212   -0.885345068   
1.81125907   4.160998893   -0.881793195   
1.593979423   4.060216487   -0.891164445   
1.365144213   3.901902938   -0.887421695   
1.696630466   3.527824159   -0.874084344   
1.505709189   3.451978391   -0.877709539   
1.313018333   3.343517338   -0.874462155   
1.14043593   3.256351714   -0.877028353   
1.432338884   2.969119604   -0.868340786   
1.283029203   2.935171267   -0.876154652   
1.10094337   2.801326393   -0.855064761   
0.966362796   2.760855286   -0.863898662   
6.778988527   17.21651327   -1.017312939   
6.058398769   17.18651996   -1.176198122   
6.936301348   14.42158666   -1.160862813   
6.043413502   13.83480162   -1.23988711   
5.368149131   13.61042262   -1.339490037   
4.013451881   11.37273458   -1.223110008   
3.941529991   8.180758225   -0.993864906   
3.29841839   7.539019297   -0.978772111   
2.771799013   7.021523033   -0.970909658   
2.316134611   6.556559753   -0.963040297   
2.719567606   5.637241396   -0.918550383   
2.364569533   5.396104934   -0.920995682   
2.050370188   5.186046965   -0.925909688   
1.735769856   4.912013701   -0.918326069   
2.085632427   4.315491163   -0.884619085   
1.825989131   4.159916689   -0.88274687   
1.60787189   4.058950908   -0.891965116   
1.375154373   3.892165434   -0.88616237   
1.699783212   3.506793987   -0.870161761   
1.508058239   3.428621763   -0.872943076   
1.318258871   3.326827132   -0.871150699   
1.148158877   3.246441617   -0.875303871   
1.432561713   2.946448043   -0.862991684   
1.271408608   2.884441594   -0.862172057   
1.120170392   2.824761222   -0.8632629   
0.974828382   2.757877496   -0.863898661   
6.830301405   17.19192299   -1.017093355   
6.121806752   17.19793619   -1.17825925   
6.948319166   14.33382408   -1.155508885   
6.083419262   13.81072344   -1.239395968   
5.413194261   13.60221626   -1.340310673   
4.037303296   11.32944107   -1.219780372   
3.962267332   8.159684761   -0.992777   
3.310309565   7.503426015   -0.975465066   
2.79149248   7.008378938   -0.970271828   
2.337570161   6.55315504   -0.963589018   
2.736849672   5.628871576   -0.918550384   
2.381911976   5.390632293   -0.921304611   
2.057133011   5.156825144   -0.921814908   
1.751493489   4.908520414   -0.918673266   
2.100584905   4.312608344   -0.885345068   
1.839537551   4.156090124   -0.883128339   
1.612317173   4.033983517   -0.887561345   
1.385774742   3.884244553   -0.885322779   
1.706678537   3.493670301   -0.86820047   
1.51580611   3.417746895   -0.871354253   
1.332787629   3.333593345   -0.87398913   
1.148660704   3.216434839   -0.868159539   
1.442445507   2.943776018   -0.863501126   
1.281819034   2.884053104   -0.863227357   
1.122399269   2.805235476   -0.858344027   
0.975869943   2.734099437   -0.857383995   
6.887842777   17.18293612   -1.017807061   
6.181966045   17.199735   -1.179676291   
7.294350584   14.93078377   -1.205430637   
6.129806626   13.80110329   -1.240214459   
5.466402415   13.61419285   -1.343137006   
4.04981123   11.25521645   -1.213120984   
3.983786818   8.140347294   -0.991906536   
3.330892617   7.487791081   -0.974756426   
2.804474504   6.978615032   -0.96733779   
2.354642885   6.537565117   -0.962354367   
2.75192912   5.616005963   -0.917824398   
2.392407608   5.369762423   -0.918987839   
2.073312683   5.151404517   -0.921978701   
1.757197574   4.877181621   -0.913812568   
2.121172545   4.321150833   -0.888430504   
1.860280813   4.168355221   -0.886943155   
1.618456692   4.01357073   -0.884158397   
1.398679033   3.882734616   -0.885952444   
1.725148143   3.504178708   -0.872123052   
1.53065775   3.422860199   -0.873850974   
1.338647048   3.318675943   -0.8711507   
1.161810735   3.222012846   -0.870623117   
1.439909718   2.915926075   -0.856623702   
1.294211276   2.888029155   -0.865601769   
1.120198115   2.775018871   -0.850145888   
0.992707548   2.75455097   -0.864748387   
6.95250623   17.19134367   -1.019563729   
6.237088025   17.18725481   -1.180127141   
7.456430289   15.14456315   -1.224531183   
6.163157354   13.76222093   -1.238413684   
5.506649226   13.59366667   -1.342772227   
4.078547834   11.226842   -1.211405681   
4.011820044   8.134327241   -0.992668163   
3.353849217   7.47753663   -0.974756426   
2.821772187   6.959867365   -0.965934577   
2.374350364   6.529379408   -0.962217157   
2.760384013   5.589794452   -0.914920341   
2.406846289   5.357890794   -0.918215542   
2.089107123   5.145019583   -0.921978701   
1.771478995   4.86991631   -0.913465369   
2.128751006   4.303163828   -0.886071052   
1.871046348   4.158152537   -0.88598948   
1.627439635   4.000418593   -0.882356847   
1.412255414   3.883019363   -0.887001902   
1.729384407   3.485755306   -0.868854272   
1.532745491   3.39950353   -0.869084509   
1.348089812   3.312753442   -0.870677675   
1.173679612   3.223897605   -0.872101254   
1.439801753   2.89331422   -0.851274545   
1.313391494   2.906899265   -0.872461131   
1.131971781   2.779587128   -0.852605353   
1.012959048   2.783937084   -0.874945249   
7.02105787   17.20876285   -1.021869476   
6.295624164   17.18396745   -1.181222078   
7.47847689   15.0724761   -1.220551976   
6.212733038   13.7595976   -1.23988711   
5.559629548   13.60436318   -1.345507365   
4.104407687   11.19092531   -1.208883095   
4.032775245   8.113969952   -0.991688979   
3.382093088   7.478974072   -0.976291841   
2.84311159   6.951177491   -0.965934577   
2.394712307   6.522994118   -0.962354366   
2.780605955   5.587499964   -0.915936779   
2.421642454   5.346881606   -0.91759774   
2.107499653   5.144976444   -0.923125257   
1.783016457   4.85521412   -0.911729385   
2.135361864   4.283411386   -0.883348552   
1.878522394   4.140771381   -0.883509809   
1.644912944   4.008096463   -0.885159278   
1.428205725   3.889682151   -0.889520616   
1.760582853   3.521461781   -0.879096557   
1.558885586   3.429362425   -0.877936513   
1.364519707   3.323882002   -0.874698723   
1.172865925   3.19117171   -0.864217825   
1.461242194   2.913951286   -0.858661407   
1.317905237   2.893200494   -0.8695591   
1.145611703   2.788558088   -0.856431137   
1.024802111   2.789818542   -0.877777663   
7.079521117   17.20099107   -1.022692973   
6.356968405   17.18797131   -1.182832357   
7.523790916   15.0476773   -1.220407256   
6.247484917   13.72414531   -1.238413684   
5.607793392   13.60289401   -1.347057324   
4.076887535   11.01127309   -1.190822052   
4.05586873   8.098003683   -0.991253863   
3.409141628   7.477598022   -0.977472907   
2.861775994   6.936004403   -0.965041581   
2.408173226   6.497969148   -0.959747855   
2.805275024   5.593978146   -0.918405187   
2.438034937   5.339427075   -0.91759774   
2.115362954   5.11934036   -0.919685652   
1.795164991   4.842333801   -0.910340655   
2.152024595   4.283869975   -0.884800579   
1.890400696   4.133203365   -0.88312834   
1.659450419   4.008462835   -0.886360312   
1.446588854   3.902700568   -0.893508581   
1.771817453   3.516915376   -0.879314472   
1.556415781   3.396232383   -0.870673331   
1.373595514   3.316987144   -0.873989131   
1.190741867   3.209366154   -0.870130368   
1.471919723   2.91290707   -0.859680291   
1.337241311   2.911934088   -0.876418519   
1.162263371   2.804580579   -0.862443099   
1.032356011   2.783963687   -0.876927939   
7.134174023   17.1838021   -1.022967393   
6.412462819   17.17586702   -1.183347699   
7.593706549   15.07173173   -1.224241862   
6.289976443   13.70581943   -1.23849558   
5.653323724   13.59482004   -1.347969036   
4.090100729   10.94372947   -1.184868978   
4.076663058   8.07753542   -0.990274678   
3.405525827   7.409359236   -0.969913906   
2.887996177   6.93909595   -0.966699961   
2.431915006   6.500755584   -0.961256866   
2.816622842   5.573865323   -0.916517567   
2.456883464   5.337306764   -0.918524472   
2.124986316   5.098256975   -0.917065012   
1.815190044   4.850638753   -0.912944603   
2.157162792   4.261454497   -0.88153359   
1.9055384   4.1327329   -0.884272808   
1.672872982   4.006065307   -0.88696083   
1.455814336   3.890918545   -0.891829402   
1.78127348   3.508852333   -0.878660728   
1.572546297   3.403818809   -0.873850973   
1.387510425   3.321722899   -0.876354423   
1.190045114   3.177561693   -0.862493342   
1.487431082   2.921303546   -0.863501125   
1.327933394   2.868428318   -0.864546467   
1.156393461   2.766388419   -0.85178555   
1.042573281   2.785274342   -0.878344204   
7.193030782   17.17656889   -1.023845846   
6.475332491   17.18319421   -1.18521559   
7.648037394   15.06437148   -1.225544104   
6.327810813   13.67741259   -1.237677089   
5.699627549   13.58843156   -1.349063138   
4.116633429   10.91251263   -1.182850886   
4.090610638   8.043724597   -0.987663518   
3.442017628   7.428608941   -0.973811572   
2.901209259   6.910998394   -0.964021089   
2.444149524   6.47287698   -0.958238785   
2.833261085   5.564316165   -0.91637237   
2.467008367   5.316301152   -0.9162077   
2.137558977   5.084438534   -0.915754665   
1.829715033   4.84412586   -0.912770976   
2.180503685   4.274965167   -0.885708062   
1.928552602   4.149121795   -0.889041299   
1.68287369   3.995496071   -0.885759794   
1.462217658   3.871798817   -0.888471154   
1.793807873   3.506846352   -0.879532386   
1.583803995   3.400743928   -0.874304921   
1.396563081   3.314764297   -0.87564483   
1.213153392   3.209252002   -0.872101254   
1.501683385   2.927051211   -0.86655777   
1.345293525   2.88269642   -0.870086778   
1.182813583   2.805373604   -0.864902508   
1.049418597   2.777576901   -0.876927939   
7.257348834   17.18201513   -1.025492723   
6.5507244   17.22294193   -1.189337847   
7.683316375   15.0195264   -1.223807702   
6.371006374   13.66064376   -1.23792266   
5.751765546   13.59564472   -1.351524692   
4.136286347   10.86357019   -1.178915787   
4.111189274   8.023174913   -0.986684333   
3.440839163   7.366731324   -0.967079289   
2.932066092   6.924898133   -0.967210236   
2.458352442   6.450538148   -0.956043843   
2.855286794   5.56528108   -0.917969596   
2.480376354   5.302443161   -0.915126532   
2.148911475   5.067866212   -0.913952994   
1.846322026   4.843090744   -0.913638998   
2.198103849   4.277001513   -0.887523023   
1.943355415   4.147630078   -0.889995032   
1.695889981   3.992117858   -0.886160158   
1.471651651   3.860899383   -0.887001901   
1.809476549   3.510869296   -0.881929564   
1.590918919   3.388816379   -0.872489127   
1.411665905   3.322089184   -0.878719774   
1.223684499   3.207326094   -0.872593947   
1.510656407   2.922430315   -0.86655777   
1.354952354   2.880301015   -0.870614398   
1.201578492   2.825632501   -0.872280845   
1.057593453   2.773448186   -0.876644698   
7.44738507   17.48210225   -1.04476195   
6.605678615   17.20835251   -1.189724323   
7.731644167   15.00031639   -1.224169502   
6.417550884   13.65095533   -1.23882293   
5.808691056   13.61365573   -1.355080347   
4.164956749   10.83875608   -1.177604127   
4.142625177   8.023773254   -0.988316307   
3.458347827   7.345359431   -0.965662009   
2.947844451   6.90310027   -0.965424302   
2.474930509   6.434645076   -0.954809193   
2.870075703   5.552100434   -0.917243552   
2.497053697   5.295701801   -0.915280967   
2.163673662   5.059435737   -0.913625408   
1.865061689   4.847513852   -0.915548551   
2.207145422   4.262378403   -0.885889557   
1.957747903   4.145198816   -0.890757972   
1.707357929   3.98509502   -0.885759794   
1.479979399   3.847241066   -0.884902984   
1.816191329   3.497506076   -0.879968274   
1.594226402   3.368954077   -0.868630559   
1.419172172   3.311491027   -0.877064016   
1.246404052   3.237021252   -0.881709164   
1.519615158   2.91778202   -0.866557771   
1.355103992   2.857827943   -0.865074146   
1.211379156   2.82458494   -0.873100647   
1.063341688   2.763030063   -0.874378766   
7.504531635   17.46742856   -1.045255954   
6.671419393   17.22150488   -1.192043063   
7.772112415   14.96590321   -1.2233013   
6.482874316   13.68073789   -1.243324868   
5.852791632   13.60126012   -1.355627399   
4.186679186   10.79624404   -1.174375343   
4.153919164   7.985451488   -0.985161195   
3.482143947   7.337406051   -0.966016299   
2.974109009   6.905866055   -0.967082682   
2.494660252   6.427021667   -0.954809192   
2.886181801   5.54151407   -0.916953159   
2.512440837   5.286231334   -0.914972095   
2.183873768   5.063643683   -0.915590871   
1.879212053   4.83993293   -0.915201354   
2.216118017   4.247740311   -0.884256034   
1.965814552   4.129423561   -0.88865983   
1.716855773   3.973542547   -0.884358609   
1.485406561   3.826276271   -0.881124943   
1.830532443   3.49883567   -0.88171165   
1.602458412   3.359652098   -0.867495687   
1.434336153   3.318716156   -0.880138961   
1.242990202   3.198853984   -0.872347601   
1.528110333   2.912249692   -0.86630302   
1.367608796   2.861489639   -0.867448556   
1.221566596   2.82438692   -0.874193738   
1.074938343   2.767800703   -0.876927939   
6.872136496   14.40540906   -0.722814527   
7.558482517   17.44523929   -1.04531091   
6.72712946   17.20839247   -1.192558404   
7.812904138   14.93226756   -1.222505341   
6.523956898   13.65898516   -1.243161075   
5.896077845   13.58689361   -1.35599206   
4.221594782   10.7879807   -1.174879836   
