X     Y     Z
-5.091587672   9.474281426   -0.591360147   
-4.994680415   8.537758309   -0.638435778   
-3.641913702   6.255848561   0.062792374   
-3.591317524   8.089660608   0.006024684   
-3.59130148   7.354684627   -0.073426586   
-3.637531176   6.81125654   -0.140984369   
-3.594110126   6.182417502   -0.19950178   
-3.575483109   8.063098079   -0.317259719   
-5.256002433   10.77625279   -0.542981771   
-5.058267027   9.481929476   -0.590866084   
-4.968463447   8.553041399   -0.638435778   
-3.638718069   6.294695884   0.063069945   
-3.592270568   8.159214824   0.006068247   
-3.584416833   7.398064352   -0.073749538   
-3.627388305   6.842702399   -0.141404239   
-3.629097468   6.286913705   -0.202513543   
-3.567625678   8.112450908   -0.318769445   
-5.218129727   10.78243579   -0.542484131   
-5.023546087   9.486814074   -0.590207333   
-4.921258248   8.531938263   -0.635730562   
-3.629344761   6.323174653   0.063243432   
-3.568822038   8.173862535   0.00607097   
-3.581632406   7.45048332   -0.074162196   
-3.625466769   6.890076342   -0.142152695   
-3.656517871   6.37954027   -0.205134896   
-3.559498924   8.161830779   -0.320279201   
-5.153891404   10.7335549   -0.539226797   
-4.995810999   9.504832965   -0.590372021   
-4.873237405   8.508893714   -0.63289648   
-3.637655187   6.382931348   0.06372918   
-3.545714781   8.189362213   0.006074374   
-3.584586372   7.515589813   -0.074700449   
-3.609865668   6.911801512   -0.142371757   
-3.643850322   6.402891249   -0.205525321   
-3.617745373   8.365336201   -0.327827861   
-5.120077809   10.74751288   -0.539136317   
-4.959237439   9.505951132   -0.589493627   
-4.843163033   8.516864828   -0.632381198   
-3.636768833   6.427132461   0.064058801   
-3.559235134   8.290253281   0.00614108   
-3.592306932   7.591630503   -0.075346354   
-3.615331651   6.974328026   -0.143430558   
-3.624681314   6.414910469   -0.205553201   
-3.594427232   8.381906542   -0.32804354   
-5.07854339   10.74510614   -0.538231459   
-4.92913234   9.519347203   -0.589383835   
-4.816029532   8.529945048   -0.632252391   
-3.634665579   6.469644886   0.06437107   
-3.529083959   8.290092408   0.006132912   
-3.6055432   7.680461716   -0.076117847   
-3.607640198   7.012058831   -0.143978206   
-3.620633988   6.453897965   -0.206445572   
-3.572214246   8.401171355   -0.328367045   
-3.894962417   8.306774227   -0.4154928   
-4.891688898   9.518439408   -0.588395709   
-4.802524732   8.567313717   -0.633927045   
-3.633797064   6.514824066   0.064709363   
-3.538631222   8.383797274   0.006194173   
-3.616157221   7.764912076   -0.076844487   
-3.584746629   7.020422492   -0.143923444   
-3.641187856   6.537458568   -0.208760184   
-3.549917171   8.420379292   -0.328690549   
-3.807524327   8.185534585   -0.408842382   
-4.844770394   9.498713056   -0.586254651   
-4.776218017   8.582007149   -0.633927044   
-3.62348119   6.543437724   0.06488285   
-3.551882629   8.487785004   0.006262921   
-3.603221561   7.799571428   -0.077077735   
-3.617877543   7.139302048   -0.146132318   
-3.630304779   6.565219965   -0.209290025   
-3.563762996   8.526202184   -0.332393011   
-3.718355918   8.058395836   -0.401920524   
-4.807038313   9.496605189   -0.585211629   
-4.74359199   8.585264395   -0.633089718   
-3.611096762   6.568543573   0.065021632   
-3.545368965   8.545748761   0.006297636   
-3.590523488   7.835133758   -0.077319946   
-3.607636938   7.173591954   -0.14660695   
-3.610145757   6.576326674   -0.209290025   
-3.568193495   8.610953039   -0.335268696   
-3.684884824   8.050690818   -0.400970456   
-4.776983953   9.509523717   -0.585101837   
-4.716270975   8.598027195   -0.632960912   
-3.597155428   6.591002305   0.065134397   
-3.608139805   8.772997689   0.006456915   
-3.580123883   7.876153818   -0.077615987   
-3.608381864   7.230251552   -0.147537959   
-3.645918976   6.690065717   -0.212552783   
-3.540999032   8.620011109   -0.335196783   
-3.657690444   8.056499696   -0.400699016   
-4.747786624   9.52413437   -0.585101837   
-4.686529741   8.606321356   -0.632510003   
-3.595018873   6.635417289   0.065464018   
-3.576677193   8.772913899   0.006448747   
-3.586357176   7.954558244   -0.078279827   
-3.619462149   7.308485957   -0.148907093   
-3.653915683   6.753971743   -0.214225975   
-3.52735109   8.662303176   -0.336418947   
-3.629264508   8.059486024   -0.400291828   
-4.713232182   9.527916358   -0.584443028   
-4.656307105   8.613636374   -0.631994721   
-3.623430849   6.737124546   0.066357462   
-3.564358217   8.820004917   0.006475293   
-3.574998377   7.994734017   -0.078566898   
-3.598345828   7.322247996   -0.148961855   
-3.654460092   6.804778865   -0.215480891   
-4.688002207   11.61446384   -0.450511684   
-3.60411406   8.069670069   -0.400246587   
-4.674739214   9.523508501   -0.583290155   
-4.62466845   8.618208913   -0.631286201   
-3.619698707   6.779965592   0.06666973   
-3.539141089   8.83554016   0.006478697   
-3.560588879   8.028516691   -0.078791167   
-3.597775375   7.378187547   -0.149874611   
-3.638268662   6.824779735   -0.215759752   
-4.68538481   11.71137068   -0.453710874   
-3.577721313   8.077035386   -0.400065627   
-4.646811192   9.540498547   -0.583454843   
-4.591169356   8.619144431   -0.630320069   
-3.613864617   6.819312667   0.066947302   
-3.608692053   9.089868181   0.006657034   
-3.570161049   8.117206545   -0.07955369   
-3.59471835   7.429691402   -0.150696096   
-3.641157583   6.880969976   -0.217181978   
-4.707633561   11.87246969   -0.459390362   
-3.563772447   8.112668897   -0.401287135   
-4.607092087   9.53313397   -0.582137341   
-4.555841789   8.616427661   -0.629096266   
-3.597581538   6.839217478   0.067034041   
-3.552437009   8.144620302   -0.079715166   
-3.609551923   7.519102695   -0.152284292   
-3.627467056   6.906267663   -0.217628163   
-5.140498758   13.08112308   -0.50554507   
-3.539664409   8.125395491   -0.401377615   
-4.572642637   9.53641844   -0.581478531   
-4.529849442   8.6312483   -0.629160699   
-3.596945814   6.889224838   0.067415705   
-3.561175123   8.233492037   -0.080477696   
-3.626879963   7.614993093   -0.15400028   
-3.64646509   6.994480016   -0.220054311   
-5.105056974   13.1089392   -0.50601237   
-3.6121744   8.361815317   -0.412506905   
-4.541219334   9.545894479   -0.581204052   
-4.501042505   8.640680019   -0.628838655   
-3.60201801   6.950834419   0.067910133   
-3.57491893   8.335360784   -0.081365812   
-3.613752304   7.647780137   -0.154438404   
-3.643823716   7.042034192   -0.221197662   
-5.079566815   13.16276524   -0.507486155   
-3.579029999   8.355410928   -0.411647317   
-4.508502021   9.552557498   -0.580764884   
-4.458929594   8.624308472   -0.626648661   
-3.60079994   7.000978751   0.068291804   
-3.596288632   8.456714395   -0.082442317   
-3.628890968   7.741213559   -0.156099615   
-3.632248487   7.07274249   -0.221811173   
-5.007750051   13.09614448   -0.504322877   
-3.58657371   8.44450783   -0.4154928   
-4.474093022   9.555493877   -0.580106075   
-4.435638576   8.644162538   -0.62709957   
-3.591579282   7.036040072   0.068526005   
-3.587032582   8.507327655   -0.082828063   
-3.61988033   7.784041057   -0.156738547   
-3.612348092   7.087415054   -0.221922723   
-4.96011277   13.09182095   -0.503568043   
-3.591277927   8.52820442   -0.419066843   
-4.440129499   9.55921355   -0.57950222   
-4.392794539   8.625717343   -0.624780771   
-3.597993801   7.102331671   0.069063803   
-3.57981342   8.563499274   -0.083267633   
-3.614828994   7.835965026   -0.157560033   
-3.640669686   7.197475382   -0.225018156   
-4.894988946   13.04054841   -0.501015891   
-3.573949002   8.560384822   -0.420107361   
-3.772312667   8.18711243   -0.49561822   
-4.364509938   8.635591808   -0.62452316   
-3.582924583   7.126737722   0.069193913   
-3.539741918   8.541186705   -0.08294468   
-3.604916656   7.877930101   -0.158180697   
-3.634266731   7.23987902   -0.225994182   
-4.856351531   13.05925113   -0.501159658   
-3.558748512   8.598077808   -0.421419349   
-3.693219123   8.080588956   -0.488481516   
-4.345154259   8.663212553   -0.625553723   
-3.592292002   7.200331738   0.069801105   
-3.540121525   8.616751991   -0.083572645   
-3.579077585   7.88531051   -0.158107681   
-3.643683479   7.314521451   -0.227974144   
-4.813154619   13.06564991   -0.500836124   
-3.531594959   8.607106557   -0.421328869   
-3.680366721   8.118254689   -0.490073556   
-4.308772798   8.656848462   -0.624136683   
-3.609227452   7.290180015   0.070564432   
-3.581935957   8.795197153   -0.085196372   
-3.608637332   8.015687577   -0.160499109   
-3.63540066   7.35434125   -0.228866515   
-4.765510257   13.05970089   -0.500045349   
-4.368197892   10.7397576   -0.525066343   
-3.63169298   8.076688539   -0.486889476   
-4.277332942   8.660184504   -0.623428162   
-3.595222039   7.31827104   0.070729246   
-3.581512685   8.871980033   -0.0858333   
-3.613378992   8.092453225   -0.161813465   
-3.618543505   7.37712683   -0.229229045   
-4.716249896   13.04888373   -0.499074807   
-4.348301681   10.78553593   -0.526649799   
-3.620317786   8.117886391   -0.4887011   
-4.245473625   8.662513771   -0.62265521   
-3.589841092   7.364321971   0.07106754   
-3.823267658   10.66649593   0.007712767   
-3.627086131   9.064892191   -0.087591592   
-3.578818642   8.081560326   -0.161375342   
-3.608579892   7.414258846   -0.230037761   
-4.665753107   13.03412445   -0.497960439   
-4.308890006   10.78305584   -0.525880721   
-3.58247107   8.099733611   -0.486944372   
-4.215822208   8.669215946   -0.62220436   
-3.599015025   7.44101525   0.07170075   
-4.447096577   11.21390708   -0.108224597   
-3.533906014   8.046729584   -0.160462586   
-3.614071662   7.483804184   -0.231850398   
-4.630752085   13.06250597   -0.498499622   
-4.264752444   10.7683605   -0.524523463   
-3.565225012   8.128060389   -0.487987424   
-4.185302603   8.674019673   -0.621624645   
-3.594340074   7.489885876   0.072065068   
-4.408648547   11.21726097   -0.108125921   
-3.61220272   8.294035143   -0.165172411   
-3.64206266   7.601230963   -0.235141036   
-4.581054943   13.04930575   -0.497457196   
-4.227680699   10.77116543   -0.524025824   
-3.553813138   8.170090854   -0.489853943   
-4.149622331   8.667917492   -0.620272037   
-3.594987238   7.550534698   0.072542144   
-4.365140837   11.20743925   -0.107901651   
-3.601010996   8.338121633   -0.165829597   
-3.641900364   7.661119556   -0.236646918   
-4.539030097   13.0576351   -0.497241547   
-4.188097011   10.76732648   -0.523211505   
-3.556413451   8.245134046   -0.493696804   
-4.120441476   8.675199496   -0.619885561   
-3.585045646   7.58955737   0.07281105   
-4.328935922   11.21611346   -0.107856791   
-3.583678417   8.368431681   -0.166212959   
-3.627333431   7.691243337   -0.237232548   
-4.483662387   13.02708735   -0.495552053   
-4.145342873   10.75495726   -0.521989968   
-3.539346697   8.275285269   -0.494849677   
-4.089553193   8.678772027   -0.619241473   
-3.578717178   7.636739524   0.073158016   
-4.29736256   11.23681386   -0.107928563   
-3.584950905   8.442887661   -0.167472569   
-3.601601951   7.69780835   -0.237093118   
-4.435294144   13.01618662   -0.494617452   
-4.117317781   10.78068961   -0.522623327   
-3.565399453   8.407445652   -0.502096171   
-4.058259251   8.681333981   -0.618532953   
-3.593631211   7.730198573   0.073947361   
-4.236293986   11.17981402   -0.107255746   
-3.571057903   8.482412802   -0.16803847   
-3.605743728   7.768664209   -0.238933635   
-4.386396117   13.00321871   -0.493610968   
-4.082809166   10.78953275   -0.522442367   
-3.543459096   8.427548696   -0.502645189   
-4.026148133   8.681974603   -0.617695627   
-3.566548405   7.733922917   0.073877973   
-4.207598385   11.20773733   -0.107399281   
-3.58853585   8.59759232   -0.170101298   
-3.602795533   7.825089872   -0.240327981   
-4.346166005   13.0156666   -0.493575027   
-4.046531984   10.79358976   -0.522035208   
-3.518355475   8.440223914   -0.502754981   
-3.99490592   8.684313093   -0.616987106   
-3.563186694   7.789385852   0.074303007   
-4.169707951   11.21122024   -0.107309569   
-3.567111819   8.620571909   -0.170338614   
-3.586246384   7.852473143   -0.240829942   
-4.29429675   12.99288234   -0.492209097   
-4.003660159   10.77973237   -0.52076849   
-3.521046276   8.52018788   -0.506872291   
-3.916875128   8.583951675   -0.609000203   
-3.581416519   7.893163212   0.075187771   
-3.615114366   11.03597057   0.007904718   
-4.134255607   11.2211456   -0.107282657   
-3.551272092   8.65737631   -0.170849768   
-3.57946249   7.901681105   -0.242001173   
-4.238568898   12.95755478   -0.490375837   
-3.962636094   10.77040148   -0.519727913   
-3.920348357   9.569484889   -0.568577523   
-3.701653157   8.178633192   -0.579435882   
-3.575240498   7.944236567   0.075569434   
-4.09638189   11.22438225   -0.107192952   
-3.6083022   8.873844723   -0.174902407   
-3.59944906   8.011100579   -0.245012951   
-4.195410428   12.96003889   -0.48998042   
-3.926495802   10.77406001   -0.519320753   
-3.895855031   9.593493668   -0.569291229   
-3.677770293   8.192681881   -0.57962912   
-3.562670901   7.981647921   0.075820988   
-4.060227178   11.23219501   -0.107148092   
-3.575454283   8.870963627   -0.174628569   
-3.57729572   8.027583872   -0.245180262   
-4.152276238   12.96238033   -0.489585032   
-3.890370306   10.7775997   -0.518913594   
-3.867150094   9.607253661   -0.569401021   
-3.650588542   8.199368531   -0.579307017   
-3.554357898   8.029116103   0.076167954   
-3.514296469   11.07163578   0.00790676   
-4.022714441   11.23612573   -0.107067358   
-4.431011499   11.09168614   -0.21807578   
-3.569621878   8.07692158   -0.246351522   
-4.118829427   12.99506427   -0.490339895   
-3.849552012   10.76784841   -0.517873075   
-3.836917182   9.617217432   -0.569291229   
-3.618966576   8.195923681   -0.578276453   
-3.642260231   8.296354102   0.078596724   
-3.483009185   11.09095123   0.007912885   
-3.976862294   11.21637041   -0.106762346   
-4.425303105   11.17680891   -0.219481421   
-3.571309165   8.148260889   -0.248192025   
-4.065785031   12.96568252   -0.488758256   
-3.818832417   10.78620036   -0.518189755   
-3.807761013   9.629871873   -0.569346124   
-3.596607021   8.21338657   -0.578727361   
-4.367520406   11.11795828   0.215800749   
-3.570487533   8.201135166   0.077590516   
-3.474777881   11.18466798   0.007972105   
-3.948726314   11.24644496   -0.106932793   
-4.382592663   11.16892592   -0.219061566   
-3.570201552   8.214184625   -0.249865246   
-4.01236722   12.93418877   -0.487104734   
-3.783739739   10.79220929   -0.517918315   
-3.77892771   9.643368764   -0.569455917   
-3.575366457   8.23353534   -0.579371449   
-4.333027753   11.13037348   0.215782689   
-3.590889927   8.317627501   0.078588052   
-3.450141177   11.22681994   0.007994567   
-3.91157715   11.25095092   -0.106861029   
-4.343957788   11.17113601   -0.218842504   
-3.559227312   8.258146534   -0.250869167   
-3.97208049   12.94452644   -0.487032851   
-3.749629097   10.8009356   -0.517782536   
-3.746433042   9.647470418   -0.569016749   
-3.554825737   8.255464959   -0.580144402   
-4.295981196   11.13615242   0.215638192   
-3.574405957   8.349748609   0.078787556   
-3.419171533   11.24883357   0.008002736   
-3.863696749   11.22413193   -0.106493223   
-4.310743161   11.18721003   -0.218897266   
-3.560194351   8.330613156   -0.252737565   
-3.919288166   12.91361904   -0.48541527   
-3.719072544   10.81994577   -0.518144514   
-3.716817315   9.658918584   -0.569016749   
-3.55025008   8.314973502   -0.583558139   
-4.257511791   11.13807316   0.215421425   
-3.671844421   8.650625021   0.081519922   
-3.387235512   11.26788929   0.008008862   
-3.827630686   11.23120022   -0.106448371   
-4.27818421   11.20505253   -0.218988536   
-3.556849902   8.393958229   -0.254327131   
-3.886546302   12.94855466   -0.486277988   
-3.684572536   10.82752272   -0.517963555   
-3.689656854   9.676807274   -0.56940102   
-3.555068671   8.397505991   -0.588582155   
-4.219779124   11.14173186   0.215240793   
-3.717044972   8.832358292   0.083124643   
-3.353504848   11.28110416   0.008010903   
-3.798590086   11.25899796   -0.106600869   
-4.232113154   11.18726517   -0.218386126   
-3.624003995   8.626010541   -0.261019928   
-3.845949429   12.95754406   -0.486170163   
-3.642088101   10.81132113   -0.516651538   
-3.652894108   9.669400117   -0.568303043   
-3.537013214   8.426776115   -0.589870331   
-4.183118407   11.14807266   0.215114357   
-3.687235054   8.837260667   0.083063928   
-3.320853188   11.29805497   0.008015668   
-3.758962006   11.25542402   -0.106457341   
-4.197069455   11.19832396   -0.218349604   
-3.600981819   8.645393826   -0.261270923   
-3.80167535   12.95393965   -0.485595008   
-3.606058109   10.81391494   -0.516244378   
-3.621111475   9.674950897   -0.567973668   
-3.647249193   8.764661315   -0.612736043   
-4.145761531   11.15241969   0.214951785   
-3.63640789   8.791240998   0.082526123   
-3.28785002   11.31395141   0.008019752   
-3.689262397   11.16056666   -0.105452601   
-4.152601089   11.18396579   -0.21782021   
-3.571770593   8.649932569   -0.261075717   
-3.757181367   12.94922555   -0.484983941   
-3.570672769   10.81828678   -0.515927699   
-3.585163919   9.669162858   -0.566985483   
-3.614253375   8.761050393   -0.611705479   
-4.099088226   11.13130876   0.214301513   
-3.580586638   8.732040944   0.081866888   
-3.255884845   11.3335962   0.008026559   
-3.605566633   11.02072106   -0.104026232   
-4.118614571   11.19759071   -0.217838464   
-3.543701457   8.657149579   -0.260964167   
-3.310479691   11.5418553   -0.43189164   
-3.533743633   10.81779527   -0.515384819   
-3.547564378   9.658559129   -0.565722877   
-3.585469275   8.767479151   -0.611383435   
-4.063890971   11.14101523   0.214247318   
-3.553027339   8.741131957   0.081849543   
-3.222191287   11.34738011   0.008029282   
-3.571738696   11.03173091   -0.104026232   
-4.083557087   11.20829489   -0.217801956   
-4.583763349   11.29671882   -0.340106738   
-3.273691463   11.54714987   -0.431711902   
-3.498080225   10.82098151   -0.515022841   
-3.511770865   9.652507659   -0.564734692   
-3.551430963   8.760865809   -0.610159632   
-3.567299594   8.854017419   0.082803702   
-3.544283887   11.06263479   -0.10421462   
-4.045078784   11.20948558   -0.217582894   
-4.564749702   11.34967952   -0.341277999   
-3.224229052   11.50709953   -0.429842701   
-3.447821026   10.77837938   -0.512489346   
-3.480109869   9.657600244   -0.564405317   
-3.523420164   8.768942265   -0.609966394   
-3.590183577   8.990288286   0.08397471   
-3.527551427   11.12778933   -0.104725961   
-4.011005975   11.22278355   -0.217601148   
-4.482158451   11.24384713   -0.337680591   
-3.200911051   11.56027794   -0.431460281   
-3.424082032   10.81843164   -0.513891843   
-3.441067193   9.641900241   -0.562868172   
-3.495393203   8.776929428   -0.609773156   
-4.402723294   11.12396265   0.103777861   
-3.51374384   11.20344039   -0.105335977   
-3.962878394   11.19639283   -0.216852692   
-4.457925922   11.28357727   -0.338461441   
-3.173077537   11.59799769   -0.432502707   
-3.387293147   10.81744577   -0.513348964   
-3.413133633   9.657119686   -0.563142652   
-3.464419431   8.77740104   -0.609064635   
-4.391213816   11.19513452   0.104315659   
-3.488837811   11.24472906   -0.105623048   
-3.92784833   11.20661118   -0.216816185   
-4.382833973   11.19388082   -0.335365993   
-3.13539437   11.59995984   -0.432215144   
-3.35497646   10.83064907   -0.513484683   
-3.373265063   9.638329575   -0.56144082   
-3.441109667   8.797282188   -0.609708724   
-4.347065352   11.18338954   0.104081457   
-3.460777448   11.27641081   -0.105820406   
-3.877057598   11.17138065   -0.215903414   
-4.32135195   11.13738022   -0.333274496   
-3.147742283   11.7891134   -0.438901117   
-3.313538297   10.8141477   -0.512217906   
-3.340409571   9.639198881   -0.560891861   
-3.408693776   8.793840636   -0.608742591   
-4.298716941   11.16028093   0.103743164   
-3.424132521   11.28027713   -0.105757613   
-3.830094421   11.14634528   -0.215191466   
-4.304022702   11.19443779   -0.334585172   
-3.420930972   12.97182148   -0.482539614   
-3.282083609   10.82999823   -0.512489346   
-3.305960471   9.635235344   -0.560068364   
-3.377046823   8.792146574   -0.607905265   
-4.263388119   11.17061423   0.103717139   
-3.38577139   11.27827876   -0.105640989   
-3.789117678   11.13816553   -0.214808119   
-4.252221016   11.16181792   -0.333218736   
-3.379102802   12.97451918   -0.482252022   
-3.243966722   10.82374871   -0.511720267   
-3.273494041   9.636823526   -0.559574301   
-3.345087804   8.789408602   -0.607003507   
-4.239707507   11.21170103   0.103977365   
-3.346600995   11.2732748   -0.105497453   
-3.762267932   11.17153204   -0.215227974   
-4.171008518   11.05042873   -0.329509777   
-3.331316902   12.95385323   -0.481101771   
-3.209041474   10.82790321   -0.511448827   
-3.240094411   9.63546333   -0.558915491   
-3.30226241   8.757611581   -0.604105052   
-4.20388759   11.22090973   0.103942668   
-3.311154388   11.28061083   -0.105470542   
-3.707423522   11.12136755   -0.214041395   
-4.128683539   11.04070159   -0.328840506   
-3.29328077   12.97079297   -0.481353392   
-3.175806779   10.83769815   -0.511448827   
-3.207995334   9.637779928   -0.558476324   
-3.276077222   8.76957141   -0.604233858   
-4.170486216   11.23656659   0.103968693   
-3.275415639   11.28687534   -0.10543466   
-4.086804902   11.03175779   -0.328199101   
-3.24982716   12.96629549   -0.480814179   
-3.141152455   10.84259255   -0.511222627   
-3.178099449   9.646627674   -0.558421428   
-3.249157238   8.77958039   -0.604233858   
-4.131162533   11.23616871   0.103847256   
-3.24739036   11.31993945   -0.105649959   
-3.640666172   11.14865946   -0.214132679   
-4.081868275   11.12307032   -0.330541593   
-3.202592101   12.94613145   -0.47969987   
-3.102922486   10.83489217   -0.510408309   
-3.147250811   9.652535624   -0.558201844   
-3.221519632   8.787633749   -0.604105052   
-4.087431935   11.22342112   0.103613054   
-3.207462902   11.31157062   -0.105479512   
-3.570473225   11.04846351   -0.211996821   
-4.053870864   11.15245161   -0.331043554   
-3.166414038   12.97045865   -0.480239054   
-3.069394755   10.84339894   -0.510363068   
-3.112410052   9.645991837   -0.557268555   
-3.191819475   8.789972107   -0.60358977   
-4.0461933   11.21709594   0.103439568   
-3.187315744   11.37335163   -0.105963942   
-3.580717659   11.19745256   -0.214643819   
-3.973924435   11.03786755   -0.327278835   
-3.125670356   12.97622585   -0.480095258   
-3.037728029   10.85853701   -0.510634508   
-3.079157589   9.644080435   -0.556609804   
-3.161797691   8.791271332   -0.603010055   
-4.006714665   11.21533161   0.103309458   
-3.179629681   11.48137289   -0.10687897   
-3.51136052   11.09780767   -0.21252623   
-3.95279921   11.08578616   -0.328338546   
-3.08468978   12.98089293   -0.47991555   
-2.992421997   10.82447734   -0.508598652   
-3.049555508   9.653481906   -0.556609804   
-3.13280254   8.795289855   -0.602623579   
-3.973621834   11.23134224   0.103344155   
-3.145973777   11.49686145   -0.106932793   
-3.503580653   11.19249624   -0.214132679   
-3.914443229   11.08560753   -0.32797603   
-3.041429531   12.97570039   -0.479376336   
-2.956040107   10.82204286   -0.508055773   
-3.018137578   9.657073984   -0.556280428   
-3.098169261   8.783214543   -0.601142165   
-3.929557453   11.21611278   0.103092601   
-3.174884282   11.74392447   -0.109139632   
-3.476324314   11.22611476   -0.214570803   
-3.896251731   11.14285669   -0.329314572   
-2.997104827   12.96549672   -0.478657415   
-2.92386572   10.83491813   -0.508236732   
-2.987316118   9.662472712   -0.556060845   
-3.069891742   8.788910371   -0.600884495   
-3.895456095   11.22906001   0.103101274   
-3.160511456   11.83476175   -0.109893184   
-3.445380771   11.24819899   -0.214789865   
-3.838173508   11.08580168   -0.327278835   
-2.955536559   12.96683578   -0.478369852   
-2.895757217   10.86314319   -0.509141531   
-2.954446103   9.661089302   -0.555456932   
-3.041608722   8.794515026   -0.600626883   
-3.842147008   11.18610609   0.102598173   
-3.18080601   12.05905185   -0.111884717   
-3.410275572   11.25680247   -0.214753342   
-3.803172286   11.09468886   -0.32719518   
-2.909168047   12.94659076   -0.477291485   
-2.862670185   10.87294272   -0.509186772   
-2.92508149   9.671063594   -0.555511827   
-3.011380192   8.794363679   -0.599982795   
-3.781412114   11.12020906   0.101886889   
-3.164464094   12.14810276   -0.112620328   
-3.371993849   11.25476049   -0.214516026   
-3.767831295   11.10251784   -0.32708363   
-2.866625273   12.94277129   -0.476824184   
-2.827539305   10.87490536   -0.508870092   
-2.896255636   9.682861707   -0.555676515   
-2.984385314   8.80356158   -0.599982795   
-3.738026206   11.10427445   0.101635342   
-3.199417815   12.43860062   -0.115221884   
-3.337164837   11.26409432   -0.214497773   
-3.734706618   11.11686748   -0.327167314   
-2.811986396   12.88315944   -0.474307945   
-2.793665487   10.88159387   -0.508779612   
-2.868234611   9.697446854   -0.556005949   
-2.956410029   8.809837806   -0.599789557   
-3.662213677   10.99046463   0.100490345   
-3.187823281   12.55303058   -0.116190735   
-3.302029142   11.27236045   -0.214461265   
-3.700898373   11.12922242   -0.32719518   
-2.779592036   12.92494457   -0.475530138   
-2.758549862   10.88333513   -0.508462932   
-2.838469949   9.706200681   -0.556005949   
-2.929367886   8.818865764   -0.599789556   
-3.62378014   10.98740349   0.100360235   
-3.167532303   12.63549761   -0.116863552   
-3.264371137   11.27187415   -0.214260457   
-3.675799763   11.16805937   -0.328003896   
-2.743860828   12.95198632   -0.476213088   
-2.719328057   10.8684886   -0.507377174   
-2.809232831   9.716781192   -0.556115741   
-2.899804678   8.820227516   -0.599274274   
-3.607740754   11.05265443   0.100854663   
-3.153970556   12.74707883   -0.117805492   
-3.230874882   11.28568097   -0.214333487   
-3.648330758   11.20019428   -0.328617406   
-2.706357031   12.97110442   -0.476608505   
-2.686689575   10.87969018   -0.507512894   
-2.778037254   9.720553824   -0.555841202   
-2.869643477   8.819593612   -0.598630187   
-3.152562294   12.9111507   -0.119231861   
-3.211752793   11.35037721   -0.21537402   
-3.618551917   11.22560523   -0.329035712   
-2.666348459   12.97836782   -0.476572563   
-2.652825481   10.8859407   -0.507422414   
-2.746844692   9.724226721   -0.555566723   
-2.840736557   8.822656537   -0.59824371   
-3.147366135   13.06366731   -0.120550577   
-3.208689773   11.47379826   -0.217528132   
-3.599587221   11.28522391   -0.330457938   
-2.626320622   12.98550768   -0.476536622   
-2.614978218   10.87557291   -0.506562796   
-2.71297102   9.718183033   -0.554743285   
-2.81123235   8.823723809   -0.597728428   
-3.166467543   13.32231304   -0.122847121   
-3.169478587   11.46913267   -0.217254294   
-3.588413042   11.37056834   -0.33263309   
-2.584908564   12.9856623   -0.476249029   
-2.579755564   10.87576844   -0.506200877   
-2.667477203   9.669670725   -0.551504309   
-2.78264815   8.827547589   -0.597406384   
-3.163697234   13.49454962   -0.124345261   
-3.156662858   11.56078764   -0.218805982   
-3.526699556   11.29564724   -0.330123288   
-2.543904479   12.98764744   -0.47603338   
-2.54364608   10.8719599   -0.505657998   
-2.628345957   9.643127665   -0.549527997   
-2.748719274   8.814132187   -0.595924911   
-3.161926702   13.67566246   -0.125924129   
-3.193050895   11.83684739   -0.223844407   
-3.483473944   11.27871661   -0.329314572   
-2.49742896   12.96104568   -0.474775245   
-2.506685997   10.86413778   -0.504934158   
-2.604979799   9.674286121   -0.550845499   
-2.706662403   8.77389032   -0.592639979   
-3.13573646   13.75451895   -0.126561064   
-3.204604671   12.02628722   -0.22723986   
-3.450315256   11.29413025   -0.329454017   
-2.45058249   12.93133537   -0.473409315   
-2.474008232   10.87469909   -0.505069878   
-2.566817512   9.650389366   -0.549033875   
-2.682061768   8.789788791   -0.593155262   
-3.127291554   13.91432088   -0.127942581   
-3.160059155   12.00705493   -0.226692198   
-3.402060556   11.25968904   -0.328143341   
-2.403209615   12.89752947   -0.471899559   
-2.439321864   10.87638975   -0.504798439   
-2.536691006   9.65628676   -0.548924083   
-2.658253815   8.808485734   -0.593863783   
-3.153581918   14.23528656   -0.130804289   
-3.200922683   12.31570678   -0.232333032   
-3.366069325   11.26528443   -0.328003896   
-2.37281145   12.95497537   -0.473732819   
-2.408098356   10.89357614   -0.505250838   
-2.504546883   9.654358713   -0.548375124   
-2.633785605   8.825205154   -0.594443496   
-3.164067822   14.49303932   -0.133082885   
-3.19269952   12.44071475   -0.234505398   
-3.33375801   11.28322744   -0.328226996   
-2.327921263   12.93367109   -0.472690394   
-2.368712183   10.87358299   -0.503984061   
-2.473181553   9.655226295   -0.547990853   
-2.604438326   8.825587575   -0.593928215   
-3.157860911   14.68060112   -0.13471559   
-3.192579366   12.6006791   -0.237334949   
-3.292679013   11.27133325   -0.32758559   
-2.278659922   12.88662758   -0.470713367   
-2.334502848   10.8768914   -0.503803101   
-2.442079313   9.656961179   -0.547661419   
-2.572877488   8.818208439   -0.59289765   
-3.25309101   11.26409624   -0.32708363   
-2.24526916   12.92900387   -0.472007414   
-2.301535259   10.88595757   -0.503893581   
-2.409780553   9.653750721   -0.547057564   
-2.545534909   8.825101438   -0.592833218   
-3.173668339   12.85688073   -0.24178919   
-3.253916532   11.3980187   -0.330681038   
-2.204417093   12.92893541   -0.471755793   
-2.269145169   10.89785753   -0.504119781   
-2.375852546   9.643647519   -0.546069379   
-2.508871031   8.799280946   -0.590578851   
-3.214589182   11.39255539   -0.330234838   
-2.160122972   12.90803915   -0.470749309   
-2.234496353   10.89889556   -0.503848341   
-2.343424529   9.639248659   -0.545410628   
-2.479427329   8.798291675   -0.589999195   
-3.186334849   11.42643631   -0.330932004   
-2.117920733   12.89882774   -0.470174154   
-2.194131259   10.87142679   -0.502264943   
-2.312210393   9.639595698   -0.545026356   
-2.44680041   8.785668932   -0.588646528   
-3.183129865   11.55180075   -0.334278417   
-2.080244385   12.91710452   -0.470605513   
-2.158432529   10.86634882   -0.501722005   
-2.280786304   9.638871224   -0.544587131   
-2.417451885   8.784475425   -0.588066873   
-3.166580972   11.63095722   -0.336286259   
-2.038423352   12.90960583   -0.470102271   
-2.123743542   10.86605681   -0.501405325   
-2.251431053   9.646795088   -0.544642085   
-2.387348181   8.780294463   -0.58729392   
-3.154249594   11.72749481   -0.338796062   
-1.996515041   12.90098511   -0.469563087   
-2.089831116   10.86957802   -0.501269605   
-2.222720336   9.657549876   -0.544861669   
-2.358587151   8.780831732   -0.58684307   
-3.225136882   14.18249581   -0.265557376   
-3.172412081   11.94096282   -0.344680173   
-1.956926041   12.9070495   -0.469563087   
-2.055731324   10.87201248   -0.501088646   
-2.192418012   9.661402389   -0.544696981   
-2.33138097   8.787061891   -0.586778638   
-3.187297105   14.21768901   -0.266032008   
-4.500428721   17.1514882   -0.49468298   
-1.919079854   12.92485407   -0.469994446   
-2.021636558   10.8743396   -0.500907686   
-2.159061143   9.651517644   -0.543763692   
-2.304917588   8.796103889   -0.586907444   
-3.139779755   14.20982804   -0.265703408   
-4.44728594   17.16327971   -0.49462722   
-1.877980535   12.92079133   -0.46963497   
-1.987187524   10.87459482   -0.500636247   
-2.127935704   9.651271155   -0.543379421   
-2.278170607   8.804100116   -0.586971876   
-3.147435866   14.45483711   -0.270102916   
-4.376521994   17.10614863   -0.492591483   
-1.837487003   12.92055613   -0.469419291   
-1.952932577   10.87572404   -0.500410047   
-2.094076143   9.638239177   -0.542281444   
-2.248185058   8.799445311   -0.586198982   
-3.118174351   14.53481136   -0.271417258   
-4.313494128   17.07781989   -0.491392356   
-1.79838937   12.93009176   -0.469563087   
-1.918689441   10.87674498   -0.500183847   
-2.06303356   9.637783726   -0.541897172   
-2.21971382   8.800495796   -0.585812506   
-4.253341932   17.05993524   -0.490499956   
-1.758577273   12.9345581   -0.469527145   
-1.88479941   10.87962697   -0.500048127   
-2.032425669   9.639182643   -0.541622693   
-2.192462676   8.806295992   -0.585748074   
-4.174710257   16.96613187   -0.487432432   
-1.718491542   12.93692013   -0.469419291   
-1.85090986   10.88240449   -0.499912408   
-2.00264038   9.644395728   -0.541567797   
-2.163530063   8.805227286   -0.585232791   
-4.115563439   16.94971862   -0.486595822   
-1.674936888   12.91240043   -0.468340923   
-1.817020904   10.88507564   -0.499776688   
-1.969842356   9.634841595   -0.540689403   
-2.133684171   8.800185987   -0.584459897   
-4.061912505   16.9554606   -0.486400617   
-1.633808204   12.90558137   -0.467909565   
-1.782810075   10.88566916   -0.499550488   
-1.936333772   9.621262429   -0.539591427   
-2.104353834   8.796985694   -0.583815751   
-3.972171524   16.80830135   -0.481827182   
-1.592002232   12.89268023   -0.467262527   
-1.74766225   10.88023782   -0.49905279   
-1.905061   9.618342908   -0.539097364   
-2.07483404   8.792715796   -0.58310723   
-3.300435376   14.15978926   -0.405612719   
-1.552321098   12.89651079   -0.467226585   
-1.7148955   10.88949635   -0.49923375   
-1.87554338   9.624142308   -0.539097364   
-2.042419695   8.775713809   -0.581561384   
-3.289447317   14.31110803   -0.409656298   
-1.512166039   12.89625054   -0.467046847   
-1.684374154   10.9134648   -0.500093367   
-1.847887959   9.639657219   -0.539646323   
-2.014370631   8.777075241   -0.58123934   
-3.225199964   14.23144252   -0.407090706   
-1.474293764   12.91572225   -0.46758606   
-1.646553124   10.88993594   -0.49878135   
-1.81775027   9.642337058   -0.539481635   
-1.986772735   8.780293895   -0.581046102   
-3.175638794   14.21493071   -0.40633778   
-1.431573882   12.89237349   -0.466579547   
-1.60991653   10.87319578   -0.497786072   
-1.7828825   9.619397821   -0.537889595   
-1.958522243   8.780504128   -0.580659684   
-3.135237257   14.23924994   -0.406756085   
-1.391477598   12.89173692   -0.466399838   
-1.573398162   10.85633398   -0.496790793   
-1.756404341   9.641522035   -0.538822884   
-1.927718115   8.768927367   -0.579500255   
-3.1161237   14.36211943   -0.409990949   
-1.351919812   12.89594547   -0.466399839   
-1.537980294   10.84627328   -0.496112135   
-1.725232922   9.638018593   -0.538328821   
-1.900806355   8.774800408   -0.579500255   
-3.550761055   16.61112803   -0.473879469   
-1.505246026   10.85489836   -0.496293095   
-1.69842255   9.659001173   -0.539207156   
-1.873251761   8.777663122   -0.579307017   
-3.501223738   16.62878998   -0.474074674   
-1.47462017   10.87926428   -0.497197952   
-1.666572372   9.651374912   -0.538493508   
-1.846724089   8.785322289   -0.579435882   
-3.450190873   16.63945334   -0.474074674   
-1.443465453   10.90057317   -0.497967032   
-1.633449996   9.635769693   -0.537340636   
-1.8205715   8.794854897   -0.579693493   
-3.398525772   16.64702245   -0.473991019   
-1.411040983   10.912876   -0.498328951   
-1.601750018   9.627930681   -0.536626989   
-1.790192871   8.783776168   -0.578598555   
-3.339953492   16.62013097   -0.472931308   
-1.376428606   10.90823343   -0.497921791   
-1.570756828   9.623930645   -0.536132867   
-1.761469623   8.780420721   -0.57801884   
-3.273045181   16.54988875   -0.470644606   
-1.340393646   10.8915836   -0.496971753   
-1.541381415   9.629689995   -0.536187763   
-1.73162418   8.771098561   -0.57705265   
-3.213663779   16.5156968   -0.469389689   
-1.304711834   10.87679865   -0.496112135   
-1.51090199   9.628455537   -0.535858388   
-1.702803853   8.766573811   -0.576408562   
-3.145879108   16.43613613   -0.466852021   
-1.271336177   10.88075098   -0.496112135   
-1.480899858   9.630084448   -0.5356937   
-1.675151327   8.767835434   -0.57615095   
-3.094514351   16.44079774   -0.466712576   
-1.236142263   10.86871827   -0.495388296   
-1.446588763   9.60298722   -0.533936972   
-1.647506938   8.769010701   -0.57589328   
-3.04660645   16.46397537   -0.467102987   
-1.416828933   9.605404746   -0.53382718   
-1.619871269   8.770098662   -0.575635668   
-2.98320279   16.40243568   -0.465095145   
-1.388209424   9.615636166   -0.534156556   
-1.592779094   8.774045217   -0.575571236   
-2.935152821   16.42430192   -0.46545766   
-1.359261099   9.623804277   -0.534376139   
-1.565853229   8.778890565   -0.575571236   
-2.870750448   16.35348003   -0.463198853   
-1.328636413   9.620016615   -0.533936972   
-1.53977364   8.788567661   -0.57589328   
-2.818357702   16.34940529   -0.462836308   
-1.298047801   9.616131168   -0.533497805   
-1.513649471   8.798167943   -0.576215324   
-2.768852442   16.36191634   -0.462947858   
-1.267626032   9.613138802   -0.533113475   
-1.484988171   8.792930442   -0.575571236   
-2.718314117   16.36836342   -0.462892098   
-1.236597434   9.605099083   -0.532454724   
-1.45849433   8.800398225   -0.575764474   
-2.666476636   16.36675906   -0.462613237   
-1.205878961   9.598940454   -0.531905765   
-1.43068751   8.799906125   -0.57544243   
-2.596222266   16.2495021   -0.459071619   
-1.175210014   9.592684042   -0.531356747   
-1.39849819   8.771734065   -0.57331687   
-2.545119807   16.24949125   -0.458848519   
-1.146603202   9.603184133   -0.531741077   
-1.371888441   8.7779548   -0.573445675   
-2.49768158   16.27303184   -0.459294689   
-1.116097556   9.597730652   -0.531246955   
-1.342081358   8.763380151   -0.572221872   
-2.44566426   16.26677721   -0.458904279   
-1.085074821   9.58721933   -0.530478413   
-1.315337452   8.768443049   -0.572286304   
-2.394727904   16.26728172   -0.458709073   
-1.288140047   8.770463211   -0.572157499   
-2.336398871   16.21617859   -0.457063777   
-1.260942606   8.772397983   -0.572028693   
-2.284962958   16.21139109   -0.456729126   
-1.230410606   8.750532346   -0.570353982   
-2.233305752   16.20446304   -0.456338716   
-1.206005087   8.77206124   -0.571513411   
-2.176241641   16.15675155   -0.45480494   
-1.17868843   8.772752792   -0.571320173   
-2.127445599   16.16929841   -0.45497225   
-1.145275956   8.726855888   -0.568099616   
-2.076809868   16.16781813   -0.45474915   
-1.11900418   8.734286989   -0.568357285   
-2.018620258   16.10567412   -0.452824962   
-1.090345896   8.722826245   -0.567391095   
-1.97150346   16.13064393   -0.453354818   
-1.064183194   8.731083162   -0.567713198   
-1.923424697   16.14852744   -0.453689468   
-1.036450079   8.726379136   -0.567197915   
-1.871569074   16.13449477   -0.453131718   
-1.011507466   8.745379131   -0.56822848   
-1.805800934   15.99613108   -0.449088139   
-0.981100578   8.716708254   -0.566167351   
-1.756062549   15.99563386   -0.448920828   
-0.955330671   8.728605221   -0.566747007   
-1.704647522   15.97908007   -0.448307318   
-0.928863781   8.734471598   -0.566940245   
-1.654380509   15.97230285   -0.447972697   
-1.604970638   15.97332427   -0.447861147   
-1.551597912   15.93340205   -0.446606231   
-1.506929988   15.98287103   -0.447861147   
0.311296511   8.855373546   1.308929661   
0.008023876   6.558845041   1.401905351   
0.337593827   8.831640886   1.305568556   
0.365667027   8.85428585   1.309075813   
0.388576197   8.757257528   1.294900754   
0.417269733   8.794562303   1.300599914   
0.444698346   8.802132909   1.30191515   
0.473553934   8.835301528   1.307029942   
0.493157109   8.701458373   1.287447791   
0.528229496   8.840130003   1.308198911   
0.554975913   8.832543719   1.307322126   
0.583958068   8.859425573   1.311560015   
0.610931342   8.854631574   1.311121681   
0.634395845   8.801407571   1.303522686   
0.007347538   6.530028485   1.329499712   
0.660950294   8.793500705   1.302645901   
0.340551449   8.83878963   1.219369435   
0.686613341   8.77466517   1.30016158   
0.714492777   8.784349704   1.30191515   
0.743270329   8.803803162   1.305130105   
0.769327821   8.790640444   1.303522685   
0.802899495   8.861145918   1.314336637   
0.825651264   8.81136298   1.307322124   
0.428490321   7.174372505   1.261340971   
0.860019453   8.884608281   1.318574529   
0.455746671   7.256580245   1.276033874   
0.886387998   8.873068557   1.317259293   
0.477942645   7.254165083   1.27586102   
0.914214134   8.876211086   1.318136076   
0.499382625   7.240873222   1.273786661   
0.933404954   8.797616531   1.306883791   
0.612752087   8.841972311   1.221827531   
0.520957914   7.230465706   1.27223098   
0.964149981   8.829130788   1.311998466   
0.544023776   7.240619365   1.274305222   
0.568692989   7.270338563   1.279836652   
0.584929027   7.193950004   1.266699549   
0.611387136   7.244138779   1.27586102   
0.632407153   7.228492032   1.273440953   
0.64765035   7.150005255   1.259958026   
0.37797537   7.052626301   1.169990226   
0.674176296   7.197017205   1.268600937   
0.400392205   7.065223105   1.172278211   
0.695114794   7.183150832   1.266526695   
0.716072498   7.170203754   1.26462519   
0.734737827   7.135640648   1.258920905   
0.464428602   7.046472788   1.169826791   
1.232603016   8.781686366   1.309952597   
0.755898945   7.126496729   1.25771093   
0.47762479   6.922971999   1.149561569   
1.258133944   8.768070832   1.308491211   
0.76856631   7.039939204   1.242845175   
0.497088918   6.896873743   1.14547579   
1.289190062   8.792555017   1.312729102   
0.650644864   8.961944323   1.151392001   
0.790380753   7.039505574   1.243190882   
0.526083514   6.999596818   1.162799284   
1.315573024   8.78464522   1.312144618   
0.81874787   7.095754959   1.253562328   
0.359877239   8.604357972   1.343195285   
1.344312002   8.792301724   1.313898185   
0.829271124   6.998333508   1.236795183   
1.381193666   8.851669736   1.32339702   
0.868454065   7.141440113   1.262550946   
1.397146568   8.777049794   1.312875252   
0.899014528   7.208135898   1.274823782   
0.616068025   7.039788341   1.170643852   
1.429774085   8.807875187   1.318136077   
0.90238984   7.058794359   1.248895165   
0.634814226   7.006424265   1.165414141   
0.93593589   7.14681706   1.264970895   
0.648023459   6.916040911   1.150705502   
1.475401749   8.749185945   1.31068323   
0.964140353   7.19077042   1.2732681   
0.679218643   7.017126706   1.167865561   
0.513438109   8.517375096   1.330866779   
1.44110228   8.388749602   1.257344105   
0.98003813   7.142891567   1.26531672   
1.473480621   8.422293708   1.263043266   
0.995240512   7.092057224   1.256846663   
1.025246257   7.146493214   1.267045255   
0.74190025   6.992919244   1.164923833   
0.606815846   8.728151078   1.364616121   
1.053452495   7.186193451   1.274650928   
0.632517289   8.711466353   1.362304533   
1.074327685   7.175135271   1.273268101   
0.789968778   7.034313816   1.172605082   
0.66505757   8.786332893   1.374324882   
1.101693671   7.206856482   1.279490945   
0.809170768   7.011276243   1.169173048   
0.690380968   8.763566508   1.37108859   
1.124254299   7.206362042   1.280009506   
1.149608811   7.22330548   1.283639546   
1.20403735   7.277335216   1.294529554   
1.227995756   7.283319333   1.296258206   
0.918032349   7.008799574   1.170970725   
1.238830285   7.212537375   1.284330961   
0.947922948   7.0685292   1.181430265   
1.272153166   7.272736803   1.295739529   
0.963166311   7.018673013   1.173585581   
0.993882155   7.081142444   1.184535429   
1.011551387   6.899209261   1.155118152   
0.989336899   8.76768259   1.376174177   
1.641981859   7.062959416   1.071168284   
1.105599308   6.94570832   1.165087269   
1.652067868   7.008781948   1.063715438   
1.143525915   6.910567383   1.160347865   
1.16980722   6.937183898   1.16541414   
1.206952421   7.025932238   1.180939958   
1.259554591   7.07181406   1.189928577   
0.98509108   6.991578091   1.101247515   
1.311512221   7.11052163   1.197773145   
1.331137735   7.094828509   1.195812031   
1.32430345   8.811309399   1.389735544   
1.370093651   7.180835155   1.211010977   
1.422143935   7.212946144   1.217874931   
1.39087727   8.539867   1.349513617   
1.631204803   6.817270452   0.966318513   
1.441974696   7.08420969   1.19760971   
1.400079423   8.433214135   1.333332385   
1.671724536   6.893102773   0.977789785   
1.919764444   6.818699841   0.783560078   
1.486072978   7.187958173   1.215913818   
1.385731655   8.191171411   1.295730318   
1.942036341   6.81755752   0.784109811   
1.502239854   7.155365495   1.211174414   
1.981108428   6.874602126   0.791366021   
1.53940442   7.222124155   1.223268079   
2.00469359   6.87707979   0.792355459   
1.562388854   7.221224323   1.223921822   
1.348459253   7.547791317   1.195869172   
2.034496388   6.900451421   0.795763712   
2.049124719   6.872269718   0.793235044   
1.394746256   7.539375222   1.195869172   
1.51623932   6.788865054   0.891346891   
2.071920478   6.871660561   0.793894689   
1.397040611   7.424365389   1.178300943   
2.095601411   6.873828417   0.794884127   
1.432995873   7.488946199   1.189242567   
2.127805261   6.903460576   0.799061994   
2.136260656   6.85609584   0.794334452   
1.442699488   7.296816668   1.160116399   
2.160569156   6.859937603   0.79554383   
1.470722887   7.320448427   1.164585437   
2.172861779   6.825810639   0.792355459   
1.479541227   7.249103221   1.153952087   
1.501172463   7.241627427   1.153489793   
1.664517635   6.766297645   0.892872113   
1.680470601   6.741910332   0.890330095   
1.687789937   6.683829633   0.883339662   
3.751572741   11.27503602   0.441744816   
3.804295608   11.31746589   0.443862331   
1.570170788   7.13292006   1.139157856   
3.837392545   11.30100961   0.443676603   
1.6002311   7.164712429   1.145013894   
3.877232888   11.30430718   0.44427098   
1.606048004   7.08846058   1.133609975   
3.918437923   11.31124435   0.445013982   
3.943551832   11.2718152   0.443936628   
2.161111306   6.920803337   0.729690766   
4.000418558   11.32279285   0.446425658   
2.186826105   6.928372949   0.731192803   
4.032115897   11.30199544   0.446091306   
2.206257331   6.915943918   0.730591988   
4.075576335   11.31401625   0.447057199   
4.11504994   11.31460764   0.44757728   
1.961440247   6.872130581   0.915749985   
4.165587125   11.34508089   0.449286175   
1.984165537   6.871798295   0.916512567   
4.18891218   11.30132621   0.448060226   
2.005516501   6.866630793   0.916639645   
4.235120659   11.31930802   0.449286175   
2.025730596   6.857591765   0.916258353   
4.267003537   11.29878273   0.448988986   
3.841782837   11.40895697   0.332058103   
2.047611636   6.854196017   0.916639645   
4.297376766   11.27443262   0.448543173   
3.894471999   11.44916639   0.333574623   
2.074653883   6.86782136   0.91930874   
4.35526687   11.32182016   0.450957906   
3.945819799   11.4844333   0.334953249   
2.098321961   6.869961989   0.920452614   
4.384918229   11.29536315   0.450437796   
3.98496723   11.48360688   0.335284115   
2.118803505   6.861596375   0.920198458   
4.424654249   11.29488365   0.450957906   
4.026461628   11.48925057   0.335808009   
2.143095868   6.865479184   0.921596546   
4.484265357   11.34445046   0.45348407   
4.058689646   11.46836246   0.335559846   
4.523120741   11.3408503   0.45389272   
4.03498657   11.29112555   0.330734611   
4.567965242   11.35195138   0.454895747   
