X     Y     Z
-2.375752088   -8.075056194   -0.462789292   
-2.063741047   -8.084384218   -0.538535293   
-2.79847169   -7.449814975   -0.577284167   
-2.333138428   -6.973281395   -0.603900604   
-1.95191827   -6.620382779   -0.631908934   
-1.593826693   -6.234486662   -0.652621316   
-2.276631598   -6.048114585   -0.70729239   
-1.966914191   -5.867477517   -0.736057408   
-1.590287123   -5.3879331   -0.722537402   
-1.321303019   -5.161712427   -0.737919335   
-1.840051404   -4.880798646   -0.765507055   
-1.598936205   -4.76066615   -0.785078137   
-1.381715688   -4.672275681   -0.808963048   
-1.763445455   -4.667723708   -0.920918552   
-1.540889065   -4.578304237   -0.938633853   
-1.300730979   -4.387722857   -0.935002053   
-1.488720491   -3.92685714   -0.937717546   
-1.272172009   -3.770526809   -0.927416893   
-1.080430239   -3.643187802   -0.925080206   
-1.221834721   -3.211209479   -0.905020469   
-1.062940376   -3.142246205   -0.907285739   
-2.401938534   -8.072514367   -0.463063771   
-2.088533818   -8.078015411   -0.538535294   
-2.822021449   -7.443059085   -0.577428886   
-2.357712616   -6.975532349   -0.604719154   
-1.971366466   -6.611500354   -0.631635409   
-1.612946367   -6.229567726   -0.652621316   
-2.301531153   -6.057827926   -0.709250759   
-1.980128691   -5.847307304   -0.734285778   
-1.605107512   -5.377326516   -0.721772019   
-1.337629924   -5.159552111   -0.738193696   
-1.854313025   -4.873280932   -0.76521666   
-1.609724919   -4.744510894   -0.78322473   
-1.396891478   -4.670850124   -0.809454429   
-1.786867074   -4.686181968   -0.925637511   
-1.550820187   -4.561473112   -0.936154182   
-1.314186179   -4.383711769   -0.935002054   
-1.501458494   -3.924094463   -0.938153377   
-1.285933114   -3.77305898   -0.929005715   
-1.080996079   -3.604490554   -0.916091946   
-1.236534062   -3.220084241   -0.908586556   
-1.087858047   -3.183695583   -0.920213035   
-2.432734967   -8.085186903   -0.464216645   
-2.113307145   -8.071569768   -0.538535294   
-2.844843107   -7.434366644   -0.577428886   
-2.381678335   -6.975811483   -0.60537397   
-1.990778467   -6.602560626   -0.631361883   
-1.6338171   -6.231326347   -0.653327631   
-2.31939357   -6.048882032   -0.709033143   
-2.001272495   -5.850600711   -0.735466904   
-1.625036541   -5.383771062   -0.723302844   
-1.353704457   -5.156382253   -0.738330905   
-1.873157066   -4.877728846   -0.766813885   
-1.620749995   -4.729269148   -0.78152576   
-1.414356007   -4.676929412   -0.811256099   
-1.806533378   -4.694444363   -0.928359953   
-1.571502645   -4.57619037   -0.940159732   
-1.331608224   -4.392785942   -0.937804426   
-1.512084121   -3.915827514   -0.937281716   
-1.297502642   -3.769096023   -0.929005715   
-1.089793713   -3.593718683   -0.914199735   
-1.250600417   -3.227095604   -0.911643201   
-1.080312723   -3.130194146   -0.905702817   
-2.463631701   -8.097745396   -0.465369488   
-2.138827557   -8.067941689   -0.538728473   
-2.865841597   -7.420951494   -0.577067087   
-2.402743673   -6.96752986   -0.605292075   
-2.011606363   -6.598327196   -0.631544214   
-1.656245423   -6.238785483   -0.65463935   
-2.336505469   -6.038029624   -0.708597969   
-2.018239654   -5.841617366   -0.735112554   
-1.641546094   -5.378759983   -0.723302844   
-1.369008659   -5.150290259   -0.738056545   
-1.893475872   -4.885797258   -0.768991899   
-1.638160017   -4.732677345   -0.782915859   
-1.432159376   -4.683888844   -0.813221622   
-1.820571239   -4.687963294   -0.928178457   
-1.593254985   -4.593606405   -0.944737548   
-1.348811206   -4.400857697   -0.940406646   
-1.511688158   -3.879342624   -0.929654411   
-1.309379703   -3.766017468   -0.929232689   
-1.104516566   -3.60243455   -0.917274621   
-0.939426838   -3.528968034   -0.928270467   
-1.26260828   -3.228647263   -0.913171524   
-1.084831233   -3.112292032   -0.90148162   
-2.487582996   -8.087285447   -0.4652048   
-2.164345472   -8.064232954   -0.53892171   
-2.886060019   -7.40561934   -0.576560685   
-2.425419509   -6.963890146   -0.605619483   
-2.031253546   -6.590221286   -0.631361883   
-1.67770207   -6.242322085   -0.655547428   
-2.357549876   -6.037314652   -0.709359538   
-2.03811479   -5.841023388   -0.735821194   
-1.656285564   -5.368011984   -0.722537402   
-1.385317914   -5.147979029   -0.738330905   
-1.905213074   -4.871672583   -0.767685127   
-1.645173178   -4.706178205   -0.779363423   
-1.449436009   -4.688897913   -0.814859498   
-1.838892076   -4.69242741   -0.930174915   
-1.605393424   -4.583137837   -0.943593079   
-1.363756412   -4.40137815   -0.941407526   
-1.527868386   -3.885585537   -0.932269502   
-1.32350872   -3.769333883   -0.931048485   
-1.117864858   -3.606453454   -0.919166889   
-0.948483822   -3.519518791   -0.926545985   
-1.269668026   -3.21756234   -0.911133761   
-1.098538005   -3.120776992   -0.904911328   
-2.515050912   -8.088197502   -0.465698893   
-2.188291143   -8.054666205   -0.538728473   
-2.910956718   -7.402299074   -0.576994785   
-2.448095806   -6.960176899   -0.605946891   
-2.052351204   -6.586810705   -0.631635408   
-1.694494781   -6.228505555   -0.654639351   
-2.377154266   -6.032827775   -0.709685933   
-2.056355308   -5.835679529   -0.73593933   
-1.672746705   -5.362905354   -0.722537402   
-1.402406802   -5.148482965   -0.739016834   
-1.920513347   -4.866724514   -0.767830322   
-1.661248258   -4.705767188   -0.78013572   
-1.466462713   -4.692903617   -0.816333641   
-1.855810809   -4.69316538   -0.931445447   
-1.626321268   -4.597625372   -0.94759863   
-1.375789029   -4.392498603   -0.940406646   
-1.168631626   -4.289367609   -0.954377144   
-1.535822727   -3.870900871   -0.929872323   
-1.334090283   -3.76250188   -0.930367561   
-1.13037659   -3.607642685   -0.920349563   
-0.956216388   -3.505372116   -0.923589713   
-1.276671765   -3.206464621   -0.909095998   
-1.108753353   -3.119209837   -0.90543895   
-2.542248634   -8.088063771   -0.46613806   
-2.212992255   -8.047915109   -0.538728473   
-2.934756496   -7.396114803   -0.577211807   
-2.471105643   -6.957329484   -0.606356195   
-2.071951295   -6.578583503   -0.631453077   
-1.719934349   -6.246298009   -0.657060909   
-2.399324314   -6.034743744   -0.710773897   
-2.079242599   -5.84337658   -0.737710959   
-1.689490197   -5.35869413   -0.722665014   
-1.419248581   -5.147975925   -0.739565555   
-1.938363307   -4.868163546   -0.7689919   
-1.677668073   -4.706232007   -0.781062394   
-1.481744728   -4.69120434   -0.81682502   
-1.273063622   -4.61583942   -0.844026734   
-1.876760153   -4.703890568   -0.934712379   
-1.636126394   -4.580596708   -0.945119018   
-1.388371377   -4.385454769   -0.939806128   
-1.17502826   -4.261255883   -0.948919923   
-1.548779474   -3.868888959   -0.930526125   
-1.34267269   -3.750139145   -0.928324791   
-1.141732645   -3.605084092   -0.920586076   
-0.965676598   -3.497750847   -0.922357924   
-1.292991382   -3.218684315   -0.913680964   
-1.11929531   -3.118517057   -0.906230438   
-2.570980762   -8.09259676   -0.466851736   
-2.238207533   -8.043010731   -0.538857338   
-2.968554637   -7.414854212   -0.57938231   
-2.490083577   -6.9431485   -0.605783216   
-2.090614108   -6.56745132   -0.630997221   
-1.738822664   -6.240033475   -0.656960056   
-2.416346949   -6.023663866   -0.710338723   
-2.097495741   -5.83790471   -0.737829095   
-1.708632717   -5.361990612   -0.72381306   
-1.437697557   -5.153138873   -0.740937417   
-1.955133511   -4.866784336   -0.769717943   
-1.694775482   -4.70849963   -0.782298056   
-1.499730232   -4.697913507   -0.818790484   
-1.297279392   -4.647957314   -0.850623418   
-1.902566362   -4.726390155   -0.940338817   
-1.649172573   -4.57278518   -0.944546754   
-1.402714981   -4.383974082   -0.940406645   
-1.190461206   -4.26610638   -0.95080897   
-1.565758621   -3.87678843   -0.933577048   
-1.353509451   -3.744170422   -0.927870842   
-1.154268565   -3.606191301   -0.921768751   
-0.962320264   -3.444366213   -0.909054702   
-1.302860138   -3.21470235   -0.913680964   
-1.127871611   -3.112347891   -0.905438949   
-2.596712105   -8.087522823   -0.467016423   
-2.267200448   -8.051474412   -0.539887901   
-2.982697598   -7.3844416   -0.577718267   
-2.514766624   -6.944847518   -0.606601708   
-2.112582784   -6.566694546   -0.631544214   
-1.758228608   -6.235627097   -0.657060909   
-2.434070106   -6.014379627   -0.710121107   
-2.112348785   -5.82304047   -0.736766105   
-1.724770995   -5.355779342   -0.723685506   
-1.455653377   -5.156330016   -0.742034916   
-1.972285341   -4.866264733   -0.770589125   
-1.708538114   -4.701421126   -0.781989127   
-1.517467968   -4.703617874   -0.820592214   
-1.321436408   -4.679021784   -0.857046474   
-1.92001795   -4.727820071   -0.941790787   
-1.662186318   -4.56493681   -0.943974548   
-1.417062471   -4.382447027   -0.941007163   
-1.206997687   -4.274666092   -0.953537552   
-1.576540239   -3.869255388   -0.932923248   
-1.36499005   -3.740000192   -0.927870841   
-1.162037371   -3.592463982   -0.919166889   
-0.980265215   -3.467511445   -0.915952689   
-1.313082507   -3.211585202   -0.913935713   
-1.136420601   -3.106155448   -0.904647518   
-2.624593703   -8.089016275   -0.467565412   
-2.292711648   -8.047360482   -0.54008114   
-3.009478938   -7.385416193   -0.578514108   
-2.536061269   -6.93709933   -0.606601707   
-2.137645369   -6.575334711   -0.633002977   
-1.780899124   -6.242641367   -0.658372628   
-2.452134724   -6.005963105   -0.710012328   
-2.132252499   -5.822127414   -0.737474746   
-1.741194135   -5.35046252   -0.723685506   
-1.472010027   -5.15374467   -0.742309276   
-1.990575672   -4.8684334   -0.771895958   
-1.7212523   -4.691519626   -0.781216889   
-1.539229682   -4.721450013   -0.824523141   
-1.33713805   -4.679680163   -0.857914437   
-1.925939063   -4.700977692   -0.937616317   
-1.675844864   -4.55889457   -0.943783814   
-1.428370899   -4.371559547   -0.939605976   
-1.221717915   -4.276583836   -0.95479688   
-1.587661518   -3.862594809   -0.932487417   
-1.378141247   -3.740364067   -0.929005713   
-1.171242233   -3.58334064   -0.917747702   
-0.995962486   -3.482191989   -0.920633441   
-1.322929289   -3.20754163   -0.913935714   
-1.142268773   -3.092701339   -0.901745487   
-2.651886601   -8.088515982   -0.468004579   
-2.324022764   -8.063301772   -0.541626986   
-3.037052597   -7.388140651   -0.57945467   
-2.558712288   -6.933026493   -0.606929116   
-2.159672847   -6.574422301   -0.633550028   
-1.803905002   -6.250530554   -0.659785257   
-2.47319918   -6.004845873   -0.710773896   
-2.150793175   -5.817421008   -0.737710959   
-1.761318798   -5.356401818   -0.725216331   
-1.488914354   -5.153010796   -0.742857997   
-2.009274942   -4.871449746   -0.773347985   
-1.735980764   -4.68714312   -0.781371324   
-1.559880558   -4.735444937   -0.827799011   
-1.353950033   -4.684070653   -0.859476852   
-1.944859638   -4.705952605   -0.939794328   
-1.69118951   -4.557413148   -0.944546755   
-1.439318677   -4.359713983   -0.938004579   
-1.234289653   -4.270936933   -0.954377143   
-1.600251867   -3.859508919   -0.932923247   
-1.388252009   -3.732467312   -0.928097817   
-1.181011501   -3.576040118   -0.916801597   
-0.996943629   -3.445604317   -0.911764627   
-1.329420609   -3.195432427   -0.911643201   
-1.148718948   -3.081048091   -0.899371076   
-2.679515155   -8.088872475   -0.468498672   
-2.349866856   -8.059965889   -0.541884598   
-3.056266411   -7.370496881   -0.578803548   
-2.582058067   -6.930747408   -0.607420258   
-2.177636918   -6.561149702   -0.632911783   
-1.827812491   -6.261202482   -0.66150056   
-2.498856589   -6.014671921   -0.712841046   
-2.163075372   -5.79590979   -0.735821194   
-1.78118343   -5.361326782   -0.726619545   
-1.50110422   -5.13605865   -0.741074567   
-2.026871343   -4.871656905   -0.774364423   
-1.764192047   -4.718812518   -0.787549404   
-1.575335893   -4.733444729   -0.828290332   
-1.368590529   -4.680840235   -0.859650423   
-1.964963786   -4.713579058   -0.942516771   
-1.707229623   -4.557718782   -0.945691223   
-1.452997374   -4.356207232   -0.938204791   
-1.246015269   -4.262437963   -0.953327685   
-1.616980495   -3.866286249   -0.935756254   
-1.400381103   -3.730013991   -0.928551764   
-1.19228455   -3.573321635   -0.917038109   
-1.012954463   -3.461132923   -0.916691728   
-1.333605036   -3.177963408   -0.907822423   
-1.160204522   -3.082925897   -0.900953997   
-2.70526947   -8.083454852   -0.46866336   
-2.375147961   -8.05463341   -0.542013404   
-3.080788672   -7.365686101   -0.579165289   
-2.605063159   -6.927457317   -0.607829503   
-2.200921978   -6.563879662   -0.633823496   
-1.849830309   -6.265107055   -0.662509548   
-2.514608011   -6.000559655   -0.712079477   
-2.180496699   -5.788317331   -0.735703117   
-1.801094874   -5.366180119   -0.728022816   
-1.512923144   -5.118130329   -0.739153986   
-2.040659304   -4.86267861   -0.773928773   
-1.781451467   -4.72077293   -0.788785009   
-1.583562819   -4.709888509   -0.825014522   
-1.378755699   -4.662453454   -0.857046474   
-1.97903456   -4.706621779   -0.942335275   
-1.722940253   -4.557050581   -0.946644898   
-1.466980852   -4.353585848   -0.938605096   
-1.256314221   -4.249219152   -0.951228767   
-1.625420559   -3.853214357   -0.933794964   
-1.410092524   -3.721146825   -0.927416893   
-1.206655683   -3.579774987   -0.919639971   
-1.018066732   -3.439422338   -0.911764627   
-1.336564046   -3.157827503   -0.903237455   
-1.176849957   -3.098288023   -0.906494251   
-2.725899185   -8.062820787   -0.467949684   
-2.402414772   -8.055915062   -0.542593118   
-3.105697953   -7.36171347   -0.579599389   
-2.624889433   -6.91570516   -0.607502095   
-2.20795044   -6.51842513   -0.630085508   
-1.86648077   -6.250822591   -0.661601412   
-2.536875713   -6.001973071   -0.713167441   
-2.201420885   -5.789953938   -0.736766106   
-1.820734487   -5.370022459   -0.729298476   
-1.529469351   -5.116311863   -0.739565556   
-2.054796853   -4.854572783   -0.773638379   
-1.799091177   -4.723594862   -0.790175049   
-1.595467082   -4.697535469   -0.823704232   
-1.394746428   -4.663862946   -0.858088066   
-1.989625444   -4.691474668   -0.940520313   
-1.735863068   -4.548991747   -0.946072692   
-1.480014909   -4.348137179   -0.938404943   
-1.26766427   -4.239724333   -0.949969381   
-1.639526932   -3.853597696   -0.935102452   
-1.431591246   -3.743182857   -0.933999153   
-1.212308529   -3.560420111   -0.915618922   
-1.032782891   -3.450209993   -0.915459939   
-1.352320231   -3.167942211   -0.907312984   
-1.187385565   -3.097364811   -0.907285739   
-3.077509175   -9.011614212   -0.523561235   
-2.436626643   -8.080035702   -0.544718679   
-3.130611599   -7.357657258   -0.58003349   
-2.650728891   -6.91971903   -0.608566158   
-2.236319963   -6.536118042   -0.632455926   
-1.883348594   -6.237447371   -0.660794245   
-2.5537185   -5.990503644   -0.712732266   
-2.218818167   -5.782245847   -0.73664797   
-1.842021188   -5.378485724   -0.731211962   
-1.545732002   -5.113491948   -0.739839917   
-2.066184553   -4.840056213   -0.772331547   
-1.819600757   -4.73373087   -0.792800753   
-1.609551178   -4.691685421   -0.823540439   
-1.409333388   -4.660504446   -0.858261634   
-2.002849018   -4.682636435   -0.939975826   
-1.751574921   -4.548225047   -0.947026425   
-1.491117985   -4.33709032   -0.937003756   
-1.282080422   -4.240494757   -0.951018841   
-1.648263114   -3.841374489   -0.933359076   
-1.432898553   -3.712424524   -0.927416893   
-1.223226094   -3.556683906   -0.915618921   
-1.045328523   -3.453518576   -0.917184421   
-1.359356311   -3.157560855   -0.90552991   
-1.197578691   -3.095506602   -0.907813361   
-3.109374793   -9.014401243   -0.52427494   
-2.460531135   -8.069658522   -0.544525441   
-3.167329179   -7.381013804   -0.582638094   
-2.67841468   -6.928286582   -0.610039465   
-2.246603986   -6.500990172   -0.629720789   
-1.900151974   -6.224027719   -0.65998702   
-2.569336616   -5.976248389   -0.711970698   
-2.235830189   -5.773559165   -0.736411756   
-1.860134637   -5.377496062   -0.731849792   
-1.56546607   -5.121987288   -0.741760496   
-2.078285195   -4.827333358   -0.771315168   
-1.83733099   -4.736416171   -0.794190793   
-1.624583552   -4.688589474   -0.823868025   
-1.425064799   -4.660867561   -0.859129655   
-2.020321746   -4.683693377   -0.941427795   
-1.761964458   -4.533680001   -0.945119016   
-1.503774208   -4.330643864   -0.936603391   
-1.296227322   -4.240281357   -0.95185843   
-1.657327424   -3.830029691   -0.931833672   
-1.458066691   -3.743403103   -0.936268897   
-1.238276621   -3.56484632   -0.918693808   
-1.056486119   -3.452148789   -0.917677171   
-1.378279649   -3.174664216   -0.911643201   
-1.201106486   -3.076543129   -0.903328409   
-3.140300787   -9.014248475   -0.524823899   
-2.484395029   -8.059211165   -0.544332203   
-3.196296809   -7.385907554   -0.583795735   
-2.696759745   -6.91260875   -0.609384707   
-2.275070263   -6.518512654   -0.632091265   
-1.911609226   -6.193451857   -0.65736364   
-2.585286918   -5.962865132   -0.711317907   
-2.252086933   -5.762973116   -0.73593933   
-1.886110034   -5.39891764   -0.735549214   
-1.581757666   -5.119053225   -0.742034915   
-2.09032726   -4.814581747   -0.770298731   
-1.851133188   -4.728917053   -0.793881921   
-1.635375994   -4.673340738   -0.822066296   
-1.443719991   -4.670587072   -0.861733604   
-2.036642985   -4.681981647   -0.942335275   
-1.777298943   -4.531908806   -0.945881958   
-1.516404903   -4.324161043   -0.936203086   
-1.305765877   -4.225075131   -0.949339718   
-1.671802356   -3.83118859   -0.933359076   
-1.459213106   -3.712626591   -0.929686638   
-1.255961877   -3.580284185   -0.923661019   
-1.067072152   -3.44889132   -0.917677171   
-1.392666782   -3.181050959   -0.914699848   
-1.213014351   -3.079125622   -0.905175139   
-3.163633375   -8.992326562   -0.524110252   
-2.514155908   -8.06774804   -0.5454272   
-3.220537156   -7.379723286   -0.584085116   
-2.71722462   -6.902448282   -0.609220974   
-2.288768405   -6.493657083   -0.630359034   
-1.934157412   -6.198954835   -0.658574448   
-2.607152474   -5.96310306   -0.712297093   
-2.261743086   -5.73571338   -0.733340924   
-1.952161679   -5.533405305   -0.754684213   
-1.600113192   -5.122686067   -0.743269567   
-2.100723592   -4.798175986   -0.768701505   
-1.87107708   -4.736999411   -0.796198695   
-1.652006809   -4.674812184   -0.82321285   
-1.459217259   -4.669895697   -0.862427997   
-2.049417354   -4.672109166   -0.941609291   
-1.791916649   -4.528260164   -0.946263427   
-1.53064526   -4.322259072   -0.936803603   
-1.322512351   -4.233181363   -0.9520683   
-1.691016885   -3.843014407   -0.93749963   
-1.470596407   -3.708132239   -0.929686637   
-1.265317845   -3.571834754   -0.922478344   
-1.070994309   -3.424326499   -0.912010975   
-1.398514189   -3.167916765   -0.912152642   
-3.202571408   -9.014568726   -0.525976772   
-2.540394803   -8.064755387   -0.545749244   
-3.24597469   -7.376198198   -0.584591576   
-2.739124097   -6.895931684   -0.609384707   
-2.313688428   -6.500677493   -0.631726603   
-1.944189161   -6.164527379   -0.655547428   
-2.625434681   -5.955076302   -0.712297093   
-2.282266161   -5.736128668   -0.734285778   
-1.978781492   -5.554484774   -0.758383635   
-1.616418373   -5.119642142   -0.743543928   
-2.115833794   -4.792613823   -0.768846703   
-1.8834064   -4.725730152   -0.795271963   
-1.665346486   -4.666934641   -0.82272147   
-1.473833988   -4.666336041   -0.862601567   
-2.067719533   -4.674793081   -0.943424252   
-1.808712703   -4.530034924   -0.947789366   
-1.552145925   -4.340606817   -0.941807891   
-1.331371395   -4.216050877   -0.949129847   
-1.702007484   -3.836024296   -0.937063744   
-1.483051309   -3.706315652   -0.930367561   
-1.255326242   -3.509385286   -0.907340254   
-1.082955635   -3.425644989   -0.913242763   
-1.402721114   -3.151243064   -0.908586556   
-3.221446984   -8.980265056   -0.52454942   
-2.567547031   -8.064530685   -0.546264526   
-3.279511631   -7.390819961   -0.586545   
-2.760267593   -6.887495693   -0.609384707   
-2.332611021   -6.490737178   -0.631453077   
-1.960977396   -6.151897968   -0.654841112   
-2.642481012   -5.944268486   -0.711970698   
-2.296524353   -5.720806294   -0.733222789   
-1.994134594   -5.543721422   -0.757745805   
-1.631816436   -5.113715161   -0.743406718   
-2.132539332   -4.790619208   -0.769572745   
-1.90047611   -4.726346404   -0.796353132   
-1.679991016   -4.662731488   -0.822885263   
-1.489940061   -4.667421629   -0.863643159   
-2.083253524   -4.671122024   -0.943968742   
-1.813432294   -4.50170109   -0.943020875   
-1.565122637   -4.334902769   -0.941607679   
-1.3419216   -4.204494979   -0.947450724   
-1.714565289   -3.832566188   -0.93749963   
-1.486759024   -3.682783509   -0.925601097   
-1.278959038   -3.541157509   -0.916565026   
-1.099949675   -3.442616962   -0.918662557   
-1.404463227   -3.129280103   -0.903492147   
-1.245282113   -3.077666765   -0.908077229   
-3.261563986   -9.005075262   -0.526580627   
-2.59594447   -8.068015211   -0.54703742   
-3.297282997   -7.369798481   -0.585676799   
-2.784373961   -6.886386658   -0.610039465   
-2.355230769   -6.491039218   -0.632182459   
-1.978316687   -6.141118116   -0.654336619   
-2.660298723   -5.935226248   -0.71186186   
-2.312946478   -5.710972663   -0.732868499   
-2.01350291   -5.544103545   -0.758638802   
-1.647801431   -5.109627244   -0.743543927   
-2.14763183   -4.78495708   -0.769717943   
-1.916452953   -4.72415538   -0.796970933   
-1.695974382   -4.6621908   -0.823704231   
-1.506066697   -4.668451799   -0.864684748   
-2.104430492   -4.679955384   -0.947054233   
-1.832778549   -4.509757416   -0.945881958   
-1.577072471   -4.326398605   -0.94080701   
-1.352113289   -4.19198386   -0.945561677   
-1.719493665   -3.812163976   -0.933794964   
-1.499887297   -3.682714697   -0.926735969   
-1.289817232   -3.537217111   -0.916565027   
-1.111697493   -3.442915245   -0.919647999   
-1.250344023   -3.063115357   -0.90491133   
-3.291576096   -9.001590322   -0.526964957   
-2.622844595   -8.066656413   -0.547488329   
-3.319877675   -7.359648263   -0.585676799   
-2.803605679   -6.873197779   -0.609630219   
-2.379244317   -6.495003735   -0.633276503   
-1.994068304   -6.125559307   -0.653327631   
-2.67890451   -5.92794291   -0.711970698   
-2.324071708   -5.688222813   -0.730860598   
-2.031527011   -5.54069375   -0.759021465   
-1.663776725   -5.105489636   -0.743681136   
-2.165157005   -4.7846554   -0.770734322   
-1.931311663   -4.719168043   -0.797125369   
-1.718431767   -4.679190444   -0.827635218   
-1.523739792   -4.674109087   -0.866594304   
-2.120808899   -4.677955317   -0.947961715   
-1.839902914   -4.487764272   -0.942448611   
-1.585600998   -4.308667032   -0.938004578   
-1.366482612   -4.192463576   -0.946611134   
-1.725524938   -3.79443283   -0.930744041   
-1.508217789   -3.670889071   -0.924920173   
-1.301334415   -3.535067094   -0.917038109   
-1.12075184   -3.434881622   -0.91841621   
-3.323326525   -9.002690065   -0.527623708   
-2.649137664   -8.063311498   -0.547810372   
-3.34615721   -7.357599363   -0.586327979   
-2.821266031   -6.856269417   -0.608893566   
-2.402267961   -6.496079937   -0.634097021   
-2.0109867   -6.113742622   -0.652722227   
-2.692957075   -5.910650134   -0.710882734   
-2.335835955   -5.667294824   -0.729088969   
-2.051270358   -5.541876256   -0.760042015   
-1.681600915   -5.106947609   -0.744641428   
-2.184753898   -4.788791963   -0.772476802   
-1.946157904   -4.714133838   -0.797279863   
-1.729007088   -4.663721647   -0.82583349   
-1.542386179   -4.682507606   -0.869024624   
-2.134741946   -4.67053249   -0.947780219   
-1.846909669   -4.465770027   -0.939015322   
-1.589941466   -4.279903222   -0.93280014   
-1.37780931   -4.183608609   -0.945561677   
-1.740818624   -3.79710561   -0.932705332   
-1.523947294   -3.677040999   -0.927643867   
-1.312173764   -3.531057985   -0.917038109   
-1.129463883   -3.425904211   -0.916938073   
-3.351628008   -8.994324003   -0.5277335   
-2.679207723   -8.071247028   -0.54890531   
-3.369545551   -7.349112059   -0.586472699   
-2.847636588   -6.860468626   -0.610039466   
-2.422186447   -6.488679296   -0.634097021   
-2.026596375   -6.098103037   -0.65171324   
-2.710248183   -5.900553632   -0.710665118   
-2.349781068   -5.651849377   -0.728025979   
-2.06826284   -5.535556566   -0.760042014   
-1.697886308   -5.103644263   -0.744915788   
-2.204396669   -4.792853503   -0.774219226   
-1.963650054   -4.71543761   -0.798515468   
-1.750913732   -4.678721191   -0.829436888   
-1.561720247   -4.692704643   -0.871802201   
-2.148649344   -4.663068012   -0.947598723   
-1.865892959   -4.472766376   -0.94168567   
-1.596528434   -4.257574675   -0.928996885   
-1.384772897   -4.161734917   -0.941573708   
-1.751231387   -3.78908919   -0.932051587   
-1.541606963   -3.687623538   -0.931502434   
-1.328460623   -3.541571285   -0.920822646   
-1.130780731   -3.394837662   -0.909547396   
-3.377448753   -8.979325507   -0.52745902   
-2.708082081   -8.075289088   -0.549742695   
-3.391657985   -7.33783463   -0.586400339   
-2.873289569   -6.862731745   -0.61102169   
-2.439273014   -6.473762632   -0.633367639   
-2.046878784   -6.09657249   -0.652217733   
-2.728755813   -5.893112958   -0.710773897   
-2.364421476   -5.638203852   -0.727199262   
-2.084886025   -5.528257333   -0.75991446   
-1.716060539   -5.105922669   -0.746013288   
-2.217425818   -4.782477682   -0.77363838   
-1.978872756   -4.71121279   -0.79882434   
-1.776414433   -4.702858715   -0.834678221   
-1.577679102   -4.692558495   -0.872670164   
-2.16211673   -4.654670668   -0.947235732   
-1.884555755   -4.478783625   -0.944165285   
-1.60646162   -4.244409847   -0.927195336   
-1.391926825   -4.140785212   -0.937795668   
-1.765733129   -3.789891455   -0.933577049   
-1.557453871   -3.693645207   -0.934226127   
-1.341039957   -3.542022221   -0.92200532   
-1.14675432   -3.407886763   -0.913981803   
-1.297225694   -3.069753339   -0.911506881   
-3.406044237   -8.971722166   -0.527623708   
-2.735725693   -8.075449123   -0.550322351   
-3.411626909   -7.321970354   -0.585966239   
-2.901309633   -6.87041065   -0.612495057   
-2.461954571   -6.47369504   -0.634097021   
-2.069407781   -6.101570221   -0.653428542   
-2.749345429   -5.890118154   -0.711426686   
-2.378226764   -5.622692327   -0.726136273   
-2.101836578   -5.521834883   -0.75991446   
-1.732991024   -5.10438532   -0.746562008   
-2.242561252   -4.798060239   -0.77726848   
-1.99640032   -4.71239754   -0.800060003   
-1.791537144   -4.69923036   -0.835005809   
-1.59206818   -4.687696313   -0.872670164   
-2.186812065   -4.670279999   -0.951773134   
-1.898671131   -4.47388449   -0.94435602   
-1.620174945   -4.241291841   -0.9275957   
-1.40556713   -4.1392727   -0.938425331   
-1.775277655   -3.780039329   -0.932487417   
-1.568016171   -3.68705723   -0.933772178   
-1.354328123   -3.544244696   -0.923661019   
-1.150342134   -3.384164912   -0.908561953   
-3.433910416   -8.962162251   -0.527678603   
-2.770503956   -8.096288059   -0.552319106   
-3.430258186   -7.303344082   -0.585315058   
-2.920030732   -6.855975617   -0.612003915   
-2.479662973   -6.460532908   -0.633550028   
-2.083280962   -6.081074708   -0.65191506   
-2.770365742   -5.887951937   -0.712188256   
-2.393517474   -5.610802717   -0.72554571   
-2.118411879   -5.514434796   -0.759786906   
-1.745750948   -5.090611745   -0.745327357   
-2.254740666   -4.785787231   -0.776397239   
-2.01162482   -4.708067526   -0.800368875   
-1.810196693   -4.704760011   -0.836971272   
-1.606122837   -4.681857935   -0.872496593   
-2.205327466   -4.672442347   -0.953588155   
-1.913546651   -4.470745683   -0.944928283   
-1.639523305   -4.252756333   -0.931198742   
-1.42301781   -4.148813625   -0.941573709   
-1.793130109   -3.787806867   -0.935756255   
-1.566652235   -3.652692609   -0.92628202   
-1.364496116   -3.538259939   -0.923187938   
-1.165754768   -3.395286367   -0.912503668   
-3.463190215   -8.956241917   -0.527953083   
-2.795003975   -8.086807206   -0.552254674   
-3.446246715   -7.279264067   -0.584229836   
-2.945377789   -6.857057688   -0.612904302   
-2.503788203   -6.464038499   -0.634644072   
-2.100951655   -6.07183388   -0.651612328   
-2.785860827   -5.874035814   -0.711535524   
-2.40679576   -5.594311489   -0.724364586   
-2.138187977   -5.515307709   -0.760807398   
-1.753904004   -5.063704061   -0.742172066   
-2.270686017   -4.781528736   -0.776832831   
-2.027232528   -4.704595671   -0.800832241   
-1.828906933   -4.710219436   -0.838936735   
-1.621123879   -4.678769836   -0.872843792   
-2.225988987   -4.678974735   -0.956310598   
-1.928031709   -4.466656384   -0.945309752   
-1.669969479   -4.292448012   -0.941007163   
-1.437339808   -4.14904752   -0.942623167   
-1.805162757   -3.783168585   -0.935974169   
-1.580170933   -3.6532323   -0.927643868   
-1.377106844   -3.538584541   -0.924370614   
-1.178071138   -3.397187805   -0.913981802   
-3.489199416   -8.941854271   -0.5277335   
-2.823747345   -8.089499432   -0.553027626   
-3.468992394   -7.269557196   -0.584302137   
-2.966797223   -6.848903759   -0.61298614   
-2.521795166   -6.451689135   -0.634188216   
-2.13401106   -6.10668465   -0.656051921   
-2.78543373   -5.826896376   -0.706857215   
-2.423947475   -5.586901004   -0.724364585   
-2.152569169   -5.502256375   -0.759914461   
-1.768449761   -5.055494482   -0.741760497   
-2.285344745   -4.774539703   -0.776832831   
-2.053469259   -4.725538679   -0.805465788   
-1.848027638   -4.716527022   -0.841066051   
-1.637422131   -4.679351359   -0.873885324   
-2.245010544   -4.681877261   -0.958307055   
-1.944077049   -4.466120794   -0.946454163   
-1.675611801   -4.268152296   -0.936803603   
-1.454582416   -4.157538675   -0.945561676   
-1.798149097   -3.738913055   -0.926385629   
-1.581637044   -3.626050179   -0.921969505   
-1.393994225   -3.54971746   -0.928391662   
-1.195535657   -3.413681273   -0.919401653   
-2.854855823   -8.098680832   -0.554251429   
-3.495601771   -7.267868184   -0.585025677   
-2.990986925   -6.847075889   -0.613640956   
-2.541942205   -6.444848075   -0.634279351   
-2.154391354   -6.10479978   -0.656556415   
-2.794236417   -5.799516907   -0.70457245   
-2.436300143   -5.568521213   -0.722947305   
-2.169075652   -5.494703804   -0.759786906   
-1.806386987   -5.113556098   -0.751089101   
-2.301271982   -4.770179305   -0.77726848   
-2.071526162   -4.727360845   -0.806855886   
-1.865390632   -4.718174344   -0.842376341   
-1.652426707   -4.67616289   -0.87423252   
-2.258507832   -4.673196756   -0.957944062   
-1.962504385   -4.47092133   -0.948743098   
-1.685450916   -4.254793649   -0.935002054   
-1.46537649   -4.147525085   -0.944302347   
-1.814294105   -3.743039382   -0.92878275   
-1.593146368   -3.622072216   -0.92219648   
-1.404878014   -3.545424065   -0.928391662   
-1.202125279   -3.399032608   -0.916445381   
-2.896421327   -8.136890547   -0.557471927   
-3.016398845   -6.847900524   -0.614541344   
-2.560966336   -6.435168756   -0.634097021   
-2.172442525   -6.096287244   -0.656354653   
-2.793344425   -5.752465831   -0.699894142   
-2.447360431   -5.547392786   -0.721175676   
-2.179316777   -5.471437887   -0.757490698   
-1.827391476   -5.122917747   -0.753284101   
-2.317626363   -4.766656057   -0.777849269   
-2.088814958   -4.72730889   -0.807936995   
-1.882050207   -4.717927058   -0.843359103   
-1.669743931   -4.679419232   -0.875794936   
-2.270681306   -4.66182528   -0.957036582   
-1.975019743   -4.462186678   -0.948170835   
-1.694860306   -4.240504552   -0.933000291   
-1.484664809   -4.161427609   -0.948500127   
-1.820628432   -3.726932363   -0.926167656   
-1.61372748   -3.638533943   -0.927643867   
-1.414305922   -3.537488436   -0.927445557   
-1.217436953   -3.409019353   -0.920140691   
-2.919346309   -8.122331929   -0.557085452   
-3.039011825   -6.842257672   -0.614868752   
-2.580697182   -6.427281744   -0.634097021   
-2.188440903   -6.082104533   -0.655547428   
-2.806172845   -5.734047226   -0.698697399   
-2.462350184   -5.535322209   -0.720585114   
-2.195722728   -5.463805425   -0.757363084   
-1.850819841   -5.138721829   -0.756439333   
-2.335722282   -4.766630716   -0.779010903   
-2.106525131   -4.728098397   -0.809172659   
-1.899094029   -4.718536513   -0.844505656   
-1.685093716   -4.67705402   -0.876315702   
-2.279339667   -4.643361146   -0.954677132   
-1.991500564   -4.462381592   -0.949506039   
-1.700167273   -4.216203156   -0.928796733   
-1.49709357   -4.155933222   -0.948290258   
-1.844986023   -3.747597402   -0.932705331   
-1.62925599   -3.643345649   -0.930140587   
-1.424061694   -3.530429551   -0.926735963   
-1.222629887   -3.390680876   -0.916199035   
-2.959569991   -8.155549904   -0.559983906   
-3.060804017   -6.834720682   -0.615032426   
-2.600029678   -6.418410891   -0.634005885   
-2.208109261   -6.078167034   -0.655850159   
-2.81012079   -5.697773762   -0.69532467   
-2.485416457   -5.541332196   -0.722356743   
-2.210239258   -5.451528438   -0.756597701   
-1.865899497   -5.131157439   -0.756164972   
-2.353839799   -4.766539393   -0.780172479   
-2.121830464   -4.723415565   -0.80948153   
-1.915788138   -4.718172126   -0.845488417   
-1.700108155   -4.673713078   -0.876662899   
-2.288778035   -4.626650632   -0.952680616   
-2.001556324   -4.448193982   -0.947789366   
-1.714571253   -4.214597156   -0.929597401   
-1.504489784   -4.136619009   -0.944932012   
-1.8438959   -3.716565469   -0.926385629   
-1.64202715   -3.641881288   -0.931048484   
-1.434886211   -3.526043896   -0.926735963   
-1.234021327   -3.389645963   -0.916938074   
-2.985606818   -8.149243218   -0.560177145   
-3.082988748   -6.828023254   -0.615277997   
-2.615188228   -6.399341795   -0.632911782   
-2.225718637   -6.068561739   -0.655547427   
-2.815642437   -5.66509071   -0.692387115   
-2.495858803   -5.519204347   -0.720466978   
-2.225827296   -5.441967857   -0.756215038   
-1.894263602   -5.159813958   -0.761240844   
-2.366248051   -4.75486647   -0.779446493   
-2.139165076   -4.723183847   -0.810562699   
-1.931002076   -4.714098282   -0.845816005   
-1.715796844   -4.672173024   -0.877357293   
-2.297696784   -4.609045865   -0.950502662   
-2.015193936   -4.44203233   -0.947789366   
-1.722285618   -4.19662786   -0.926794973   
-1.517173645   -4.131984092   -0.944932013   
-1.850052286   -3.700415667   -0.923770537   
-1.653595578   -3.637713084   -0.931275459   
-1.446804158   -3.524321693   -0.927445557   
-1.248092473   -3.395850721   -0.919647999   
-3.010594371   -8.140045361   -0.560177145   
-3.108464473   -6.82851066   -0.616178385   
-2.647333921   -6.421670618   -0.635920446   
-2.248126193   -6.071967788   -0.656657325   
-2.819654571   -5.629761514   -0.689123224   
-2.525137513   -5.538626979   -0.724010294   
-2.241377715   -5.432363273   -0.755832318   
-1.950702812   -5.263577934   -0.777428691   
-2.39191276   -4.7696955   -0.783076537   
-2.154876633   -4.719295106   -0.811026066   
-1.941311669   -4.698122919   -0.844014277   
-1.735600044   -4.681661612   -0.880134811   
-2.315357772   -4.609004729   -0.951954631   
-2.019829917   -4.41618953   -0.94359308   
-1.740399248   -4.203997542   -0.929597402   
-1.549892289   -4.181399488   -0.957315593   
-1.874569663   -3.720870311   -0.930308211   
-1.660690769   -3.6237693   -0.929005714   
-1.44980315   -3.501014816   -0.922478345   
-1.25176236   -3.373832536   -0.914720899   
-3.041138043   -8.145729006   -0.561207709   
-3.139791812   -6.841586894   -0.618224672   
-2.668169813   -6.41627695   -0.636193971   
-2.269878827   -6.073429658   -0.657565461   
-2.81407098   -5.575824528   -0.683574568   
-2.541288523   -5.529049652   -0.723774082   
-2.256890039   -5.422713733   -0.755449596   
-1.976560074   -5.283545292   -0.781269852   
-2.4087659   -4.766749769   -0.78380258   
-2.171410598   -4.717149043   -0.811798304   
-1.955716042   -4.69214478   -0.844014276   
-1.758238765   -4.698451403   -0.884301175   
-2.337037453   -4.616795453   -0.955040125   
-2.02720352   -4.396600278   -0.940731996   
-1.752533634   -4.196830212   -0.929197039   
-1.560314988   -4.170214943   -0.955846341   
-1.895253773   -3.733377069   -0.934884538   
-1.679152663   -3.634571277   -0.933091255   
-1.465780262   -3.509102022   -0.9257898   
-1.264146685   -3.375421933   -0.916199034   
-1.592735922   -3.128121648   -0.924633916   
-3.075263968   -8.160639817   -0.56288242   
-3.156163504   -6.821972451   -0.617324285   
-2.695160779   -6.425509178   -0.637926202   
-2.290959369   -6.072953072   -0.658271717   
-2.817645919   -5.540582718   -0.680310618   
-2.555317233   -5.514919806   -0.722947305   
-2.272364515   -5.413020663   -0.755066933   
-1.993110445   -5.27838321   -0.781407062   
-2.421583008   -4.755810631   -0.783221733   
-2.189199463   -4.717634483   -0.813033907   
-1.972013754   -4.690669746   -0.844833244   
-1.774385116   -4.697641484   -0.885169138   
-2.356552439   -4.620115639   -0.957218078   
-2.040268756   -4.389470133   -0.940541204   
-1.77604982   -4.216716086   -0.934801843   
-1.577937693   -4.178213421   -0.958784847   
-1.905365357   -3.724938316   -0.934230794   
-1.679605229   -3.606448378   -0.927189918   
-1.47842541   -3.509065664   -0.926972476   
-1.273468287   -3.368807913   -0.915459937   
-1.602325348   -3.12322035   -0.924633915   
-3.108800305   -8.173552091   -0.564428267   
-3.184660797   -6.828515712   -0.618797593   
-2.717577274   -6.423630012   -0.638564448   
-2.312412108   -6.073334197   -0.659078942   
-2.830097586   -5.523065717   -0.679222655   
-2.565921182   -5.493559039   -0.721175676   
-2.288187156   -5.404197201   -0.754811767   
-2.013175127   -5.282425392   -0.782916074   
-2.440226984   -4.756281544   -0.784528564   
-2.207430466   -4.718950408   -0.814424007   
-1.988705871   -4.690046675   -0.845816003   
-1.796506845   -4.712420197   -0.888988246   
-2.363973082   -4.599744454   -0.954495635   
-2.056224919   -4.38852344   -0.941685672   
-1.792042768   -4.218461488   -0.93640324   
-1.575078226   -4.132240468   -0.949339717   
-1.912760312   -3.711267503   -0.932269503   
-1.685695309   -3.590699458   -0.924466225   
-1.487664091   -3.500936498   -0.92602637   
-1.278961012   -3.352208058   -0.912010974   
-3.132073697   -8.159317436   -0.564106164   
-3.20305117   -6.813301214   -0.618306509   
-2.731800586   -6.402439283   -0.637288015   
-2.334602534   -6.075498099   -0.66008793   
-2.842468583   -5.505524219   -0.678134691   
-2.585301187   -5.491051304   -0.721884316   
-2.304366773   -5.396239538   -0.754684213   
-2.030083163   -5.278073211   -0.783190434   
-2.455261942   -4.749651686   -0.784673762   
-2.229482244   -4.728241266   -0.817204145   
-2.010067486   -4.700250042   -0.848764229   
-1.812724042   -4.711482224   -0.889856268   
-2.387117591   -4.609935472   -0.958125559   
-2.070936651   -4.384857169   -0.942257877   
-1.812693282   -4.23095512   -0.940406645   
-1.583535909   -4.116438293   -0.946821003   
-1.920988814   -3.69931858   -0.93074404   
-1.697953148   -3.588151826   -0.925147148   
-1.500694162   -3.501714244   -0.927445556   
-1.289239408   -3.348268552   -0.912010975   
-3.160696278   -8.158975316   -0.56475031   
-3.223939099   -6.803442394   -0.618306509   
-2.754579148   -6.401346148   -0.638017397   
-2.354669869   -6.072017562   -0.660491514   
-2.85980458   -5.49765947   -0.678243469   
-2.603412458   -5.485785377   -0.722238666   
-2.321303682   -5.390055564   -0.754811768   
-2.043398974   -5.264432593   -0.782092992   
-2.473935335   -4.749994428   -0.785980594   
-2.243977704   -4.721379096   -0.817204145   
-2.03151047   -4.710366475   -0.851712455   
-1.828239473   -4.708652507   -0.890377033   
-2.39897505   -4.598230883   -0.957218078   
-2.083113631   -4.375823918   -0.941685671   
-1.822944888   -4.219078397   -0.93900546   
-1.584480807   -4.081482855   -0.939894586   
-1.939115659   -3.706379279   -0.934012879   
-1.708534178   -3.582046564   -0.924920172   
-1.50294992   -3.477472175   -0.922241833   
-1.302313871   -3.351524367   -0.913981802   
-3.182806016   -8.141805017   -0.564235028   
-3.247373706   -6.798915407   -0.618797592   
-2.776583645   -6.398346002   -0.638564448   
-2.37401268   -6.06661811   -0.660693335   
-2.885425313   -5.505588814   -0.680310618   
-2.622372855   -5.482251161   -0.722829169   
-2.330322307   -5.365623367   -0.752388004   
-2.059540549   -5.258138955   -0.782092993   
-2.489415989   -4.744134283   -0.786270988   
-2.26058639   -4.718927974   -0.817976385   
-2.048706105   -4.710443903   -0.852859008   
-1.84231751   -4.702104753   -0.890203407   
-2.412613421   -4.589978874   -0.957036582   
-2.098227332   -4.372952654   -0.942448612   
-1.840967937   -4.225142512   -0.94160768   
-1.610903847   -4.11210669   -0.948080389   
-1.948202073   -3.69609577   -0.932923247   
-1.726689168   -3.59170964   -0.928778739   
-1.513999817   -3.473735601   -0.922478346   
-1.315774349   -3.355633805   -0.916199035   
-3.20886829   -8.134786941   -0.564428267   
-3.268649559   -6.78981873   -0.61887943   
-2.802588172   -6.404394654   -0.640023153   
-2.395902078   -6.067634379   -0.661601412   
-2.902302463   -5.496710412   -0.680310618   
-2.643492261   -5.483124662   -0.724010294   
-2.35154757   -5.369351117   -0.75391883   
-2.074570177   -5.249031849   -0.781681422   
-2.505808769   -4.739973391   -0.786851834   
-2.272905332   -4.707521681   -0.817204146   
-2.061166822   -4.699619251   -0.85204004   
-1.857820959   -4.699177967   -0.890724231   
-2.422081785   -4.573865047   -0.955221621   
-2.114625042   -4.372680926   -0.943783815   
-1.848010093   -4.206019451   -0.938605095   
-1.627825102   -4.11805644   -0.950599045   
-1.953124192   -3.678033644   -0.929872323   
-1.741946894   -3.595159813   -0.931048485   
-1.520740605   -3.46017911   -0.920113052   
-1.323210497   -3.34437176   -0.91422815   
-3.23713168   -8.133248082   -0.565007922   
-3.290770265   -6.782448993   -0.619125001   
-2.817801009   -6.385744429   -0.639020304   
-2.412664798   -6.055633825   -0.661096918   
-2.932690968   -5.513231507   -0.683465731   
-2.665943606   -5.486599619   -0.72554571   
-2.369211422   -5.364833252   -0.754301492   
-2.086261497   -5.231601423   -0.780035202   
-2.521269034   -4.734009857   -0.787142228   
-2.289498769   -4.704968174   -0.817976384   
-2.075176393   -4.692371675   -0.851876248   
-1.878067303   -4.708091863   -0.893501749   
-2.437028465   -4.568147975   -0.955584613   
-2.132761182   -4.375878961   -0.945881956   
-1.853761654   -4.184205909   -0.935002052   
-1.642262539   -4.117583526   -0.951648503   
-1.962097216   -3.667721576   -0.92878275   
-1.756814573   -3.597674954   -0.933091255   
-1.536860381   -3.467933486   -0.923424507   
-1.333824067   -3.341196481   -0.914474495   
-3.262068944   -8.123279095   -0.565007923   
-3.314189773   -6.777693114   -0.619616143   
-2.836569468   -6.375249884   -0.638837974   
-2.433087285   -6.052818936   -0.661601412   
-2.950061052   -5.505084669   -0.683574568   
-2.690187762   -5.493555791   -0.727553553   
-2.386869642   -5.360257539   -0.754684213   
-2.098604466   -5.215986657   -0.778663341   
-2.541861916   -4.737586683   -0.789029849   
-2.307402696   -4.705018494   -0.819211988   
-2.100008344   -4.709408306   -0.85613482   
-1.895811841   -4.710530172   -0.895064164   
-2.458480563   -4.574508987   -0.958488551   
-2.148772908   -4.374601693   -0.947026425   
-1.867389218   -4.180288377   -0.93540236   
-1.651967407   -4.10526964   -0.949969381   
-1.975192429   -3.665121181   -0.929654409   
-1.761823411   -3.580034708   -0.929913613   
-1.546303445   -3.460540954   -0.922714914   
-1.347689227   -3.346078633   -0.916938074   
-3.290347691   -8.121556885   -0.565587637   
-3.334967977   -6.767493021   -0.619616142   
-2.854892183   -6.363791504   -0.638564448   
-2.452767385   -6.048091802   -0.661904143   
-2.969297659   -5.500381834   -0.684118521   
-2.705710702   -5.482605128   -0.727199262   
-2.40086608   -5.347480554   -0.753918829   
-2.12055789   -5.22420885   -0.780858283   
-2.560618675   -4.737599433   -0.79033668   
-2.324015479   -4.7023459   -0.819984227   
-2.123346452   -4.722737848   -0.85973822   
-1.910625065   -4.705604067   -0.895237733   
-2.472971509   -4.567810168   -0.958670049   
-2.166103227   -4.375906786   -0.948743099   
-1.880607622   -4.175432739   -0.935602569   
-1.665289956   -4.101994053   -0.950389177   
-1.99015273   -3.665905874   -0.931397785   
-1.766740588   -3.562397605   -0.926735969   
-1.558110271   -3.458438276   -0.923424507   
-1.359772716   -3.34641756   -0.918169862   
-3.31977948   -8.12250913   -0.566360531   
-3.354384726   -6.754551897   -0.619370572   
-2.873581684   -6.353187946   -0.638382117   
-2.472441335   -6.043300644   -0.662206816   
-2.983783968   -5.486879726   -0.683574568   
-2.722076351   -5.473389028   -0.727081126   
-2.415624601   -5.336475343   -0.753408554   
-2.135074133   -5.214011644   -0.780309562   
-2.578453181   -4.735803813   -0.791353117   
-2.337550185   -4.693425126   -0.819675355   
-2.135381712   -4.710810116   -0.858755458   
-1.924679448   -4.698809095   -0.895064164   
-2.487915386   -4.561927969   -0.959033039   
-2.180832536   -4.371875884   -0.949315303   
-1.88976299   -4.161614776   -0.93380102   
-1.678608012   -4.098674926   -0.95080897   
-1.9990488   -3.6555016   -0.930308212   
-1.783756927   -3.569156959   -0.929913612   
-1.565498694   -3.446564785   -0.92153224   
-1.382163678   -3.371823414   -0.926299639   
-3.341259825   -8.103981975   -0.565780874   
-3.374199542   -6.742446498   -0.619206838   
-2.893472679   -6.345248327   -0.638473253   
-2.49097022   -6.035686955   -0.662206816   
-2.994872526   -5.467237667   -0.682268988   
-2.735296227   -5.457910444   -0.726136273   
-2.429926415   -5.324527745   -0.752770725   
-2.156354845   -5.220254213   -0.782230144   
-2.595349225   -4.732208407   -0.792079102   
-2.352381558   -4.687114851   -0.819829792   
-2.149414299   -4.703339697   -0.858591666   
-1.942094751   -4.700163602   -0.896452894   
-2.488641845   -4.530140896   -0.953951148   
-2.190708018   -4.358147833   -0.947789364   
-1.897219959   -4.144216549   -0.931198743   
-1.692294598   -4.096216809   -0.951438635   
-2.015905131   -3.659609644   -0.932923248   
-1.788565778   -3.551490129   -0.92673597   
-1.569997214   -3.428494614   -0.917984215   
-1.39435358   -3.372045189   -0.927531427   
-3.365723566   -8.092771757   -0.565716442   
-3.393074186   -6.728503198   -0.61887943   
-2.923740946   -6.359866294   -0.64084373   
-2.510240409   -6.029853643   -0.662408637   
-3.01691447   -5.467597773   -0.683465731   
-2.751580399   -5.448606253   -0.726018137   
-2.442104973   -5.308037166   -0.751495066   
-2.175027075   -5.220014521   -0.783190434   
-2.616074947   -4.735482584   -0.793966723   
-2.376113956   -4.698390628   -0.823073297   
-2.165897694   -4.701203016   -0.859410632   
-1.953474539   -4.686911013   -0.895064164   
-2.501576233   -4.520763531   -0.953588155   
-2.202294068   -4.347903836   -0.947026426   
-1.911567561   -4.141934842   -0.93199947   
-1.70560584   -4.092810588   -0.951858429   
-2.032805282   -3.663648325   -0.935538339   
-1.800334682   -3.54772314   -0.927189919   
-1.578879391   -3.420133143   -0.91703811   
-1.38305298   -3.315871029   -0.913242763   
-3.393238413   -8.088849865   -0.566167351   
-2.947007452   -6.358998342   -0.641664248   
-2.526031653   -6.015702728   -0.661702323   
