X     Y     Z
22.25019898   -8.149972068   4.158604976   
28.50519813   -8.136141804   4.623513782   
19.67219279   -8.111079757   4.770791928   
21.99959115   -8.131321924   5.013165285   
25.48894772   -8.365522748   5.461841693   
28.40979644   -8.180162188   5.72899558   
19.85116782   -8.184872464   3.985088389   
22.09206085   -8.169005467   4.133713599   
25.42373895   -8.351494993   4.433018969   
19.55892122   -8.134672675   4.749351899   
21.87559087   -8.161858224   4.990590862   
24.4679632   -8.113669721   5.248371711   
19.78601806   -8.22912357   3.977059404   
21.89433891   -8.172336144   4.101389285   
24.47945572   -8.124595793   4.272694872   
28.5069019   -8.326128853   4.631989563   
19.48438345   -8.173879675   4.737319391   
24.29243326   -8.138272048   5.216051688   
27.34200827   -8.05471046   5.523532173   
19.61742643   -8.22969216   3.948228399   
21.84796449   -8.2314811   4.097413417   
24.35152284   -8.165159762   4.254717634   
27.64830736   -8.167498048   4.496529664   
19.44034355   -8.2256328   4.732725066   
27.3397486   -8.145283562   5.528098364   
19.29418063   -8.163788284   3.888193887   
27.34951907   -8.170546902   4.451992596   
19.45181258   -8.30093935   4.741694849   
21.82510809   -8.37265738   4.996443559   
24.23555151   -8.284955947   5.214655509   
18.98780279   -8.102926066   3.831443828   
21.78233249   -8.359736469   4.094647761   
24.29816424   -8.313465855   4.254227445   
19.06504755   -8.20512294   4.653529089   
21.88230727   -8.471704738   5.015464594   
24.26651888   -8.378779195   5.226824871   
18.777713   -8.081461635   3.79403619   
24.30518023   -8.399250586   4.259947583   
27.24500949   -8.321754994   4.443208779   
18.98876391   -8.241431969   4.641059319   
20.77501609   -8.116396394   4.767356208   
23.22384673   -8.098592812   5.007569423   
25.93318775   -7.986823747   5.258332513   
18.77447835   -8.148428157   3.798415702   
20.87288894   -8.157992955   3.933025953   
23.34132275   -8.14641273   4.09537439   
26.09024529   -8.056636608   4.258896912   
18.79175971   -8.22453225   4.599054734   
20.68997351   -8.156423756   4.753560833   
23.08798093   -8.130745713   4.98362886   
25.83076135   -8.042124906   5.242542526   
18.69895074   -8.183912539   3.788197082   
20.80561455   -8.205369198   3.925074456   
23.22224465   -8.184862748   4.078867721   
25.85319178   -8.070396851   4.224222744   
18.4325673   -8.134799065   4.517233293   
20.4813017   -8.146851015   4.711338334   
22.84503788   -8.124054967   4.936545482   
25.78255456   -8.113966999   5.23778655   
18.41019808   -8.124927445   3.734731713   
20.51769365   -8.164644566   3.875464317   
23.00369963   -8.187262436   4.044874475   
18.20337149   -8.100464421   4.467134396   
20.44985818   -8.207099191   4.709875396   
22.64201313   -8.130191601   4.898041357   
25.54049381   -8.123989481   5.193650027   
18.32949075   -8.15658775   3.723418275   
20.43222193   -8.203333855   3.864055749   
22.67023817   -8.147027626   3.990616129   
18.01996665   -8.085172356   4.428192538   
20.13543217   -8.152723862   4.643197825   
22.40508274   -8.122801789   4.852155318   
18.27657285   -8.200305932   3.71776132   
20.14860849   -8.161333288   3.815137263   
17.91773029   -8.105429067   4.40915958   
19.92564267   -8.139023257   4.600557139   
22.10583866   -8.091132851   4.792702785   
18.16891339   -8.219056532   3.700973551   
19.85085718   -8.111710513   3.763452882   
17.8821246   -8.155502968   4.406534116   
19.8381918   -8.174408794   4.586134722   
22.06436642   -8.152801446   4.789111724   
25.51407609   -8.37494187   5.203732749   
17.85198283   -8.141756482   3.641486447   
19.84226882   -8.179330133   3.766564246   
17.73822091   -8.155705042   4.377218642   
19.55385613   -8.127511839   4.526145748   
21.83542982   -8.144431731   4.744821658   
24.41107015   -8.095927401   4.98381116   
17.76796177   -8.169379306   3.629443208   
17.57058342   -8.144022053   4.341996114   
19.31779483   -8.098987945   4.477234654   
24.30420123   -8.1433351   4.967069884   
17.56351388   -8.140745463   3.592765609   
17.48098063   -8.167736219   4.326025409   
19.14424053   -8.095372648   4.442746449   
17.48857242   -8.17128388   3.582546989   
17.32519028   -8.159795653   4.29364721   
19.09682618   -8.144477011   4.437520791   
21.68818236   -8.317685936   4.729260079   
17.10526657   -8.120428293   4.245298307   
18.95586338   -8.153183312   4.41055708   
21.63697386   -8.374282466   4.723673932   
24.23564703   -8.369243876   4.968591948   
17.01073702   -8.139595193   4.228014869   
18.86347438   -8.182114735   4.394880581   
20.93209348   -8.175394919   4.575242628   
23.25970377   -8.11217853   4.773592252   
16.94173858   -8.170552002   4.217076223   
18.6286306   -8.148245346   4.345969488   
20.7136436   -8.163406107   4.53294765   
23.1152552   -8.141427656   4.749050874   
16.7963616   -8.164050047   4.187104621   
18.55075524   -8.182075938   4.333637051   
20.52096138   -8.160292696   4.496238818   
22.77290334   -8.099466379   4.683797142   
16.71953406   -8.190215848   4.174196641   
18.43710691   -8.199608803   4.312944224   
20.41216182   -8.18964287   4.477884402   
22.67772611   -8.144076306   4.669338486   
14.86827749   -7.340007535   3.717616717   
18.18075584   -8.152503126   4.258807472   
20.07993101   -8.127957708   4.410451522   
22.3342191   -8.098158214   4.60370471   
14.85093023   -7.388195846   3.718929212   
18.10219381   -8.18407043   4.246266177   
19.9913996   -8.163592677   4.396486392   
22.22537451   -8.13593028   4.586392185   
14.83517207   -7.43722162   3.720679443   
17.9310675   -8.173051974   4.21198683   
19.87293745   -8.18644416   4.375937096   
22.13861258   -8.181277864   4.573645852   
14.83144575   -7.492379661   3.725492398   
17.68642751   -8.127170619   4.160358717   
19.68304065   -8.178941674   4.339627377   
21.8466594   -8.149652958   4.518475315   
14.82404233   -7.545814555   3.729430358   
17.6693965   -8.185093471   4.16223984   
19.52500738   -8.183608602   4.310300459   
14.81124139   -7.596602201   3.732055586   
17.46964656   -8.157751752   4.121062567   
19.35991058   -8.184330714   4.279377092   
14.79133299   -7.64379846   3.732930819   
17.37994807   -8.180906716   4.105804254   
19.21031988   -8.190651433   4.251845469   
21.76889379   -8.349675402   4.518094799   
14.79118117   -7.701308863   3.73883764   
17.21428876   -8.167537491   4.072569658   
18.99065638   -8.165939175   4.208752265   
21.64338103   -8.377793484   4.49735858   
15.39654988   -8.076643311   3.898104827   
17.07799052   -8.167152184   4.046232988   
18.98619266   -8.233129252   4.21334087   
21.01952705   -8.210548066   4.372938893   
14.96066878   -7.211071363   3.549807599   
18.64840578   -8.154714781   4.143913378   
20.78051437   -8.19075551   4.328422326   
14.8698652   -7.223606199   3.533503822   
18.52646718   -8.169190656   4.12236654   
20.50442222   -8.154700452   4.276105186   
14.850268   -7.270482021   3.534130862   
18.38581304   -8.174634843   4.096630683   
20.3991287   -8.185396431   4.259363435   
14.86209465   -7.332882837   3.542282869   
18.18807512   -8.153639922   4.058126085   
20.07453143   -8.126740321   4.196773313   
19.9099667   -8.115493532   4.999348706   
14.85353871   -7.385410874   3.545627168   
18.07814517   -8.171060519   4.039173235   
20.07404357   -8.198311819   4.201910277   
19.66517192   -8.086156635   4.944087095   
14.80632968   -7.418680071   3.539774469   
17.93083244   -8.170818687   4.011840932   
19.87814531   -8.189552994   4.166144154   
19.58449051   -8.123314242   4.930045195   
14.82452868   -7.484785845   3.549598506   
17.78992395   -8.172613521   3.985905282   
19.70152972   -8.187581996   4.134373448   
19.48669383   -8.15290974   4.911700315   
14.84856254   -7.554176225   3.560885718   
17.56559309   -8.134912516   3.941216342   
19.58668299   -8.210413736   4.115539334   
19.43107752   -8.199779676   4.903999871   
14.84359163   -7.609063746   3.565275006   
17.5485427   -8.192495592   3.943012107   
19.39863731   -8.201650781   4.081295747   
19.42913145   -8.269272255   4.909888333   
14.78976711   -7.638860727   3.557959369   
17.36816729   -8.173277966   3.908098571   
19.26501719   -8.214916342   4.058466218   
17.22085596   -8.160851535   4.625440234   
19.5692536   -8.399915923   4.951787537   
14.83305839   -7.718958944   3.574054054   
17.19338549   -8.155552458   3.874382366   
18.99621692   -8.169262537   4.007100839   
17.05368207   -8.145792586   4.587228889   
19.61400577   -8.490481968   4.969679421   
17.17447346   -8.211221379   3.875778787   
18.9242296   -8.207192155   3.997207901   
16.94980859   -8.160136013   4.566000578   
14.93790941   -7.198294052   3.376019587   
18.6704923   -8.165295013   3.948886175   
16.69999748   -8.103073664   4.505381224   
14.83113691   -7.202992659   3.356866947   
18.60044157   -8.202729835   3.939373991   
16.53014174   -8.083404534   4.466226693   
18.61539059   -8.262460923   4.735724041   
14.81424946   -7.251044949   3.358064047   
18.23251575   -8.107381322   3.866700908   
16.39281898   -8.078664827   4.43579924   
18.58284106   -8.316350858   4.733912533   
14.84290406   -7.32160218   3.369635216   
18.1941181   -8.157255078   3.863847274   
16.3592534   -8.124596351   4.433440801   
18.5643423   -8.376527981   4.735724041   
14.79317074   -7.353583893   3.363450638   
18.13143544   -8.196051525   3.855856917   
16.30383464   -8.159524991   4.425185319   
18.11033417   -8.23863896   4.62633378   
14.855524   -7.441504467   3.382802597   
17.8918036   -8.153929274   3.810198566   
16.20930884   -8.174499557   4.406315442   
17.97961715   -8.245842522   4.599382467   
14.84487091   -7.493227522   3.385595671   
17.73645875   -8.14894177   3.78242304   
15.99615672   -8.128657976   4.355131265   
17.54754984   -8.112938539   4.495201177   
14.83141906   -7.543622253   3.387790312   
17.5251917   -8.117085065   3.742661974   
15.85783015   -8.11967558   4.324232217   
17.48549797   -8.149453476   4.485688754   
14.83959969   -7.605177514   3.394972434   
17.45128171   -8.14797023   3.732198736   
15.79829928   -8.150465844   4.314797041   
17.34933541   -8.150874728   4.457152432   
17.27697014   -8.131237113   3.70023777   
4.170549894   -2.581755072   1.499232085   
15.69561682   -8.158558331   4.293568727   
17.21949123   -8.154455683   4.430201118   
17.27234329   -8.193881761   3.704613466   
4.160174399   -2.593020578   1.498355179   
15.51986029   -8.127775876   4.252291319   
17.04056649   -8.133820582   4.390566892   
17.03987154   -8.147735647   3.660096427   
4.15057967   -2.604754826   1.497770462   
15.50086805   -8.178526531   4.253942605   
16.92600457   -8.14299125   4.367465565   
14.96300826   -7.211152537   3.218731186   
4.123165729   -2.605216407   1.49075523   
15.30408447   -8.134821151   4.206768151   
16.86237962   -8.176182712   4.357500619   
14.86486881   -7.220136676   3.202370187   
4.094174598   -2.604508069   1.483155283   
15.19081631   -8.134483808   4.182473298   
16.65781621   -8.140210491   4.311071937   
14.82148582   -7.255348419   3.197804471   
4.073279399   -2.608804143   1.478478344   
15.15295926   -8.174129904   4.178935167   
16.52528696   -8.138347044   4.283214634   
14.81236386   -7.307301096   3.200658104   
16.40950355   -8.143975312   4.259660311   
16.27380675   -8.138948795   4.230897493   
16.25136954   -8.190153429   4.231576986   
15.88833832   -8.06841748   4.1434756   
15.82102174   -8.095383818   4.132378167   
15.83074039   -8.161737534   4.141437122   
15.65522809   -8.132141758   4.102029391   
15.5741117   -8.150776779   4.087308471   
15.50336869   -8.174442119   4.075304577   
15.28725451   -8.120528604   4.02502591   
14.94795543   -7.999190954   3.942133732   
2.005656694   -11.47437912   0.859284924   
1.975167898   -11.50799982   0.86134486   
1.939189871   -11.51007151   0.861050591   
1.90305496   -11.5110469   0.860682712   
1.866293834   -11.50797153   0.860020623   
1.4615472   -9.030168818   0.340066623   
1.835677934   -11.54319042   0.862227664   
1.433992821   -9.035597785   0.340103758   
1.803634605   -11.57044658   0.863846228   
1.404421997   -9.028104906   0.339657974   
1.772043535   -11.60155792   0.865759001   
1.378675031   -9.045214404   0.340140921   
1.34900009   -9.036552248   0.339657974   
1.319680366   -9.029772133   0.339249325   
1.289990577   -9.019928305   0.338729215   
1.261757968   -9.019884877   0.33858062   
1.23272542   -9.013812764   0.338209134   
1.205462726   -9.020524146   0.338320595   
1.716104256   -13.43704954   0.999286519   
1.451563782   -11.65001719   0.866053269   
1.41569503   -11.65342584   0.865979717   
1.379818938   -11.65672336   0.865906105   
1.343479052   -11.65594817   0.865538285   
1.307157087   -11.65505995   0.865170464   
1.271177528   -11.65703224   0.865023301   
1.235198123   -11.65889435   0.864876138   
1.199423311   -11.66262897   0.864876138   
1.163340248   -11.663277   0.864655481   
1.127744175   -11.66877585   0.864802585   
1.972750758   -11.54922145   0.640695601   
1.091382317   -11.66622329   0.864361212   
1.935988114   -11.54734138   0.640258817   
1.053878567   -11.65064493   0.862963364   
1.898121109   -11.53844747   0.63943979   
1.168549297   -13.37556938   0.990458355   
1.86112206   -11.53435956   0.638893753   
0.980361796   -11.63304223   0.861197696   
1.825570433   -11.53902873   0.638839155   
0.942246511   -11.60617467   0.858990655   
0.938728955   -11.60806047   0.432940376   
0.9064437   -11.65372704   0.43453781   
0.870537451   -11.65445979   0.434463513   
0.83427833   -11.65009846   0.434203458   
0.788625915   -11.50804228   0.428816778   
0.59362057   -9.070316992   0.337911945   
1.53678732   -9.041967827   0.414556702   
1.747440662   -13.4396259   0.741108029   
1.512820046   -9.069303905   0.415595224   
1.706451646   -13.44690492   0.741217225   
1.484827423   -9.072916819   0.415550073   
0.480095328   -9.036004596   0.336388808   
1.663373894   -13.39904842   1.232095675   
1.665189102   -13.45207677   0.741217225   
1.456193443   -9.072497083   0.41532432   
0.57356943   -11.45872851   0.426513505   
1.620942165   -13.3932134   1.231096104   
1.622116539   -13.44225253   0.740398197   
1.426799728   -9.06705383   0.414872785   
0.539068436   -11.47440943   0.427033615   
1.579145035   -13.39218914   1.230550841   
0.933753447   -11.54747597   0.743494059   
1.57993595   -13.43923225   0.739961414   
1.399737013   -9.076325257   0.415098538   
0.503994351   -11.47900434   0.427145046   
1.538278141   -13.39894922   1.230732517   
0.898786191   -11.55625638   0.74387833   
1.53892461   -13.44599998   0.74007061   
1.367407725   -9.050943461   0.413743933   
0.468489534   -11.47350696   0.42688502   
1.49661068   -13.39865733   1.230278209   
0.864294153   -11.57189606   0.744710947   
1.498439144   -13.45760519   0.740452795   
1.339487131   -9.054108438   0.413698783   
0.43332482   -11.4758893   0.426922155   
1.455604746   -13.40417565   1.230369047   
1.457144642   -13.4621384   0.740452795   
1.310414702   -9.049277298   0.413292398   
0.397907376   -11.471172   0.426699263   
1.41489234   -13.41254019   1.230732517   
1.416567453   -13.47349751   0.74083504   
1.283066121   -9.056221618   0.41342785   
1.373635174   -13.41582686   1.230641679   
1.375224613   -13.47777984   0.740835039   
1.333256606   -13.42790589   1.231368736   
1.332689225   -13.47001104   0.740179805   
1.290214416   -13.46210918   0.739524572   
0.496313608   -8.447214205   0.233402968   
1.248077224   -13.45705639   0.739033191   
0.495290687   -8.895833519   0.245755539   
1.206250702   -13.45485459   0.738705545   
0.469309026   -8.922267391   0.246444852   
1.164621715   -13.4545129   0.738487153   
1.122756936   -13.45105696   0.738104968   
1.573312363   -13.41797974   1.104781829   
0.500343497   -11.397553   0.732158149   
0.933718332   -11.61612335   0.637255698   
1.529539433   -13.39996743   1.102907145   
0.46655446   -11.427951   0.734015489   
0.898999604   -11.63087968   0.637910931   
1.489411606   -13.41351265   1.103640758   
0.431868281   -11.43930077   0.734655941   
0.863016771   -11.62959947   0.637692539   
1.447396969   -13.41009149   1.102988684   
0.396563429   -11.43458826   0.73427167   
0.826129303   -11.61526105   0.636764316   
1.407807202   -13.42933771   1.104211294   
0.36173299   -11.44373022   0.734784031   
0.783373024   -11.51313927   0.631031125   
0.598400116   -8.84934385   0.160238432   
-0.045402209   -8.14187153   0.005542083   
1.367003433   -13.43755895   1.10453733   
0.326138434   -11.4278282   0.733695234   
0.747335535   -11.50452762   0.630430489   
0.571119112   -8.84914185   0.160202296   
-0.070424122   -8.146693719   0.005545487   
1.32567338   -13.4406985   1.104455792   
0.510663507   -8.308964185   0.150393995   
-0.095452634   -8.149439263   0.005547529   
1.281872376   -13.41791382   1.102255188   
0.501077691   -8.582982609   0.15532525   
-0.120424754   -8.147107903   0.005546167   
1.24235219   -13.4396471   1.103722178   
0.486502661   -8.797120277   0.159172701   
-0.145401314   -8.145700157   0.005545487   
1.200315747   -13.43446146   1.102988684   
0.46524725   -8.908403673   0.161159651   
-0.170412208   -8.146215477   0.005546167   
1.159008154   -13.43708782   1.102907145   
-0.195403641   -8.145654557   0.005546167   
1.117778287   -13.44057961   1.102907144   
0.532758412   -11.45848343   0.627263634   
-0.220230942   -8.139019189   0.005542083   
0.080808989   -11.45315305   0.735040212   
0.497211959   -11.45108612   0.626772194   
-0.245350642   -8.143302896   0.005545487   
0.045682769   -11.45634055   0.735232318   
0.461112079   -11.42861358   0.625461786   
-0.270365957   -8.143511056   0.005546167   
0.010543253   -11.46540887   0.735808696   
0.425898635   -11.42598269   0.625243335   
-0.295312401   -8.141644479   0.005545487   
-0.024638606   -11.4683808   0.736000861   
0.390944614   -11.4302292   0.625407187   
0.273376811   -8.092061927   0.146275596   
-0.32005332   -8.134704811   0.005541402   
-0.059849016   -11.47324051   0.736321057   
0.355440342   -11.41740254   0.624642758   
0.249930579   -8.137833954   0.14708844   
-0.344966373   -8.132685607   0.005540722   
-0.095031604   -11.47100724   0.736192967   
0.32043858   -11.41943744   0.624697356   
0.224769505   -8.131566339   0.146961989   
-0.369870038   -8.130589611   0.005540041   
-0.130189721   -11.46766817   0.736000861   
0.199108909   -8.103231157   0.146438168   
-0.394909607   -8.131414223   0.005541402   
-0.165500941   -11.47619517   0.736577238   
-0.419751416   -8.128167103   0.005540041   
-0.200795895   -11.48062277   0.736897493   
-0.444413114   -8.121848653   0.005536638   
-0.236386229   -11.49791209   0.738050307   
-0.469905508   -8.130429914   0.005543444   
-0.275149078   -11.64478712   0.747528876   
-0.495150923   -8.133940944   0.005546848   
-0.314202758   -11.76858751   0.755534436   
0.11052688   -11.45834688   0.6266084   
-0.520230842   -8.134379691   0.005548209   
-0.35030679   -11.76756859   0.755534436   
0.075398912   -11.46262611   0.626826792   
0.48606099   -11.41199145   0.516288151   
-0.545050499   -8.130749565   0.005546848   
-0.386669578   -11.77441699   0.756046797   
0.04024924   -11.46779652   0.62709984   
0.451678373   -11.42940004   0.51701056   
-0.569992738   -8.12903964   0.005546848   
-0.422934422   -11.77716505   0.756302978   
0.00506326   -11.46087575   0.626717596   
0.415810852   -11.40876892   0.516017189   
-0.595148637   -8.130244599   0.00554889   
-0.459103115   -11.77680935   0.756367053   
-0.030092992   -11.45884111   0.6266084   
0.381073873   -11.41797873   0.516378452   
0.269660837   -8.105210773   0.070347583   
-0.620012995   -8.127382591   0.005548209   
-0.495651037   -11.78531564   0.757007504   
-0.065265138   -11.46168974   0.626772194   
0.316933016   -10.45851624   0.472940525   
0.245547753   -8.130987345   0.070564432   
-0.645181921   -8.128433009   0.005550251   
-0.532165462   -11.79171477   0.757519866   
-0.100455046   -11.46443106   0.626935988   
0.279868477   -10.27669359   0.464677384   
0.220763773   -8.137699472   0.070616482   
-0.670445313   -8.13040227   0.005552974   
-0.568339429   -11.7900272   0.757519866   
-0.135721447   -11.4720566   0.62737283   
0.194040923   -8.065362945   0.069983264   
-0.695641587   -8.131296239   0.005555016   
-0.604405876   -11.78623436   0.757391775   
-0.171035586   -11.47957388   0.627809613   
0.166903704   -7.951949263   0.068994408   
-0.72076133   -8.13111587   0.005556377   
-0.640670999   -11.78631771   0.757519866   
-0.198558122   -11.0507036   0.604385524   
-0.746343311   -8.135836887   0.005561142   
-0.676827897   -11.78429676   0.757519866   
-0.771205815   -8.132513159   0.005560462   
-0.71340038   -11.78913794   0.757968153   
0.093685278   -7.951149401   0.068977063   
-0.796737156   -8.13608018   0.005564545   
-0.749882229   -11.79187291   0.758288408   
0.101161927   -11.47084154   0.518500675   
0.070850795   -8.130385865   0.070529735   
-0.821795076   -8.134592225   0.005565226   
-0.786653191   -11.79847835   0.758864785   
-0.355314172   -11.74706939   0.642661302   
0.060925328   -10.59400809   0.47885566   
0.045957607   -8.139563584   0.070607809   
-0.846747758   -8.132032791   0.005565226   
-0.59819975   -5.601862346   1.721968442   
-0.391451761   -11.7489179   0.642825095   
0.027431423   -10.22452411   0.462148776   
0.020990718   -8.141666451   0.070625154   
-0.872012377   -8.132379653   0.005567268   
-0.573353995   -8.133487951   -0.073148493   
-0.616636741   -5.611407867   1.725476057   
-0.427712957   -11.75364887   0.643152683   
-0.003935179   -10.21956543   0.461922994   
-0.003986684   -8.139692818   0.070607809   
-0.896629008   -8.126684484   0.005565226   
-0.598451274   -8.133685046   -0.073166434   
-0.635352711   -5.62279389   1.729568394   
-0.464479324   -11.77024019   0.644135504   
-0.039648507   -11.48220821   0.518997361   
-0.028962448   -8.140642655   0.070616482   
-0.921444395   -8.122901883   0.005564545   
-0.623325796   -8.130813671   -0.073157463   
-0.647747342   -5.579020733   1.716706906   
-0.50092719   -11.77674114   0.644572346   
-0.075005524   -11.50201165   0.519900431   
-0.053957327   -8.143514604   0.070642499   
-0.946708107   -8.123016444   0.005566588   
-0.648267839   -8.128863046   -0.073157463   
-0.663049166   -5.561813516   1.712030085   
-0.536600463   -11.76517423   0.644026308   
-0.110321588   -11.50472474   0.520035913   
-0.078999185   -8.149310023   0.070694549   
-0.971387084   -8.118088424   0.005565226   
-0.673121243   -8.125839991   -0.073148493   
-0.681735143   -5.573042392   1.716122301   
-0.57458658   -11.80236819   0.646155803   
-0.145591776   -11.50233422   0.519945611   
-0.104038828   -8.152029347   0.070720566   
-0.997628882   -8.125987771   0.005572714   
-0.698390266   -8.127721183   -0.073184375   
-0.700258148   -5.582311377   1.719629917   
-0.610276856   -11.79057807   0.645609765   
-0.180659834   -11.48784871   0.519313444   
-0.129127558   -8.156670782   0.070763944   
-1.022054758   -8.118919648   0.005569991   
-0.72349979   -8.127532401   -0.073202316   
-0.720185785   -5.60195291   1.726352964   
-1.764739362   -13.75356613   1.022902236   
-0.645681577   -11.77469238   0.644845336   
-0.216034624   -11.49423196   0.519629528   
-0.154151253   -8.156236267   0.070763944   
-1.046318689   -8.110787671   0.005566588   
-0.748247877   -8.123283326   -0.073184375   
-0.681745067   -11.77165886   0.644790738   
-0.226185143   -10.34496266   0.467702677   
-0.179107621   -8.152725657   0.070737919   
-1.070673397   -8.103573576   0.005563865   
-0.773829607   -8.127918179   -0.073247168   
-0.717856799   -11.76951175   0.644790738   
-0.257847262   -10.34122452   0.467567225   
-0.20389373   -8.143141553   0.070659852   
-1.095663795   -8.101241786   0.005564545   
-0.798762076   -8.125505831   -0.073247168   
-0.753961763   -11.76725447   0.644790738   
-0.287167549   -10.25450573   0.463683983   
-0.228903659   -8.143477072   0.070668524   
-1.12215773   -8.109728922   0.005572714   
-0.823888814   -8.125006052   -0.073265109   
-0.789457479   -11.75591962   0.644299357   
-0.349902807   -11.26006301   0.509199013   
-0.253979909   -8.145734704   0.070694549   
-1.150115033   -8.128030766   0.005587689   
-0.848500296   -8.119457018   -0.073238198   
-0.790062815   -5.479501847   1.692153249   
-2.753396529   -19.12934483   1.425691948   
-0.825240583   -11.74945754   0.644080906   
-0.400742124   -11.73617033   0.53078251   
-0.278901036   -8.142918291   0.070677197   
-1.175332272   -8.126443222   0.00558905   
-0.872764547   -8.110850001   -0.073184375   
-0.813142068   -5.519627272   1.705307039   
-0.623169854   -5.727588853   1.693047271   
-0.859531167   -11.72297066   0.642770498   
-0.437823783   -11.76383661   0.532091965   
-0.303844535   -8.141025493   0.070668524   
-1.199819793   -8.119831213   0.005587008   
-0.897534158   -8.107140551   -0.073175404   
-0.631135844   -5.639836781   1.667672738   
-0.4740333   -11.76543179   0.532227387   
-0.328536882   -8.133061107   0.070607809   
-1.224277839   -8.113146213   0.005584966   
-0.922063003   -8.1013678   -0.073148493   
-0.649093393   -5.643593011   1.669364321   
-0.510386609   -11.76991038   0.532498349   
-0.353791208   -8.139007472   0.070668524   
-1.249924015   -8.114293229   0.00558837   
-0.948655281   -8.11339869   -0.07328305   
-0.66302814   -5.612990657   1.660906181   
-0.547976688   -11.80022256   0.533943226   
-0.378713181   -8.136885256   0.070659852   
-1.275433553   -8.114371618   0.005591092   
-0.974138244   -8.11541454   -0.07332791   
-0.676550344   -5.58045178   1.651884068   
-0.584226085   -11.79948356   0.533988406   
-0.403675006   -8.135684745   0.070659852   
-1.300480422   -8.111408226   0.005591773   
-1.000131353   -8.121319923   -0.073408645   
-0.620318673   -11.7956408   0.533898105   
-0.428054235   -8.123423976   0.070564432   
-1.326166473   -8.112314333   0.005595176   
-1.024541416   -8.114245292   -0.073372763   
-0.656004591   -11.78470507   0.533491721   
-0.452863169   -8.12007575   0.070547087   
-1.351541502   -8.111167617   0.005597218   
-1.050200609   -8.117013981   -0.073426586   
-0.72216807   -5.530226051   1.638914811   
-0.691512014   -11.77166694   0.532995035   
-0.478008054   -8.12264076   0.070581784   
-1.376922004   -8.109940278   0.00559926   
-1.075098356   -8.113753987   -0.073426586   
-0.726637452   -11.75353664   0.532272567   
-0.503296549   -8.127124065   0.070633827   
-1.401796462   -8.105677833   0.00559926   
-1.10052355   -8.114380663   -0.073462468   
-0.771565454   -5.638809228   1.672465669   
-0.762499275   -11.74826138   0.532137086   
-0.528487322   -8.129533584   0.070668524   
-1.427524937   -8.106263351   0.005602663   
-1.126100093   -8.115918542   -0.073507328   
-0.813995402   -5.81599807   1.725752223   
-0.797522491   -11.73091686   0.531459798   
-0.553425879   -8.12787423   0.070668524   
-1.454328805   -8.112672442   0.005610151   
-1.152539191   -8.123316241   -0.073606003   
-0.807508957   -5.643466346   1.675285087   
-0.751503334   -10.57450611   0.479171743   
-0.578359286   -8.126138083   0.070668524   
-1.479570327   -8.110140318   0.005611512   
-1.178316753   -8.125678984   -0.073659833   
-0.782759912   -10.55621073   0.478449275   
-0.603213102   -8.1233276   0.070659851   
-1.506634814   -8.117361857   0.005619681   
-1.204119674   -8.127961107   -0.073713656   
-0.810603452   -10.49499475   0.475785215   
-0.628440744   -8.125427086   0.070694549   
-1.531902359   -8.114666571   0.005621042   
-1.229199798   -8.12521781   -0.073722627   
-0.841518054   -10.47652671   0.475062748   
-0.653286072   -8.122463969   0.070685876   
-1.556225073   -8.106982095   0.005619   
-1.253664055   -8.118442821   -0.073695715   
-0.888210545   -5.707077427   1.69727634   
-0.87307435   -10.46692639   0.474746664   
-0.678535275   -8.124407961   0.070720566   
-1.581089621   -8.102169564   0.005619   
-1.278565195   -8.11455886   -0.073695715   
-0.911131708   -5.738437956   1.707426177   
-1.470982599   -11.96993624   0.659478574   
-0.89915578   -10.39452993   0.47158589   
-0.703543672   -8.123283481   0.070729246   
-1.606522949   -8.100223258   0.005621042   
-1.303612943   -8.111585145   -0.073704686   
-1.511943136   -11.99905049   0.66133502   
-0.927475724   -10.35192289   0.46977975   
-0.728908985   -8.126066658   0.070772616   
-1.328654478   -8.108534623   -0.073713656   
-1.54874857   -11.99435552   0.66133502   
-0.958124191   -10.33709206   0.469237913   
-0.754390297   -8.129766769   0.070824658   
-1.353689565   -8.105406339   -0.073722627   
-1.603211821   -12.12318208   0.668706266   
-0.989547649   -10.33112132   0.469102433   
-0.780187582   -8.136372223   0.070902726   
-1.378550243   -8.101215147   -0.073722627   
-1.081119137   -8.125022645   -0.149655549   
-0.968355062   -5.650227484   1.684589132   
-1.639593952   -12.11227004   0.668378679   
-1.022123217   -10.33698327   0.469508817   
-0.805145948   -8.133940158   0.070902726   
-1.404080995   -8.100888681   -0.073758509   
-1.10577147   -8.119686236   -0.149619041   
-0.980241172   -5.616040553   1.675285088   
-1.674828523   -12.09333614   0.66761425   
-0.830096707   -8.13143225   0.070902726   
-1.429796525   -8.101466736   -0.073803361   
-1.130815118   -8.117245628   -0.149637295   
-0.976315057   -5.493982929   1.639760718   
-1.713462659   -12.09901606   0.668214827   
-0.85503968   -8.128847545   0.070902726   
-1.455705656   -8.102947403   -0.073857192   
-1.156136123   -8.116707091   -0.149692071   
-0.990433533   -5.475856157   1.635249603   
-1.753863794   -12.11643044   0.669470696   
-1.480738133   -8.099426485   -0.073866162   
-1.181608487   -8.117079757   -0.149765087   
-1.016085269   -5.520914505   1.649628624   
-1.789567452   -12.10111515   0.668924658   
-1.505945625   -8.096811993   -0.073884103   
-1.207094047   -8.117372757   -0.149838103   
-1.822808092   -12.06989778   0.667505054   
-1.530965027   -8.093136495   -0.073893074   
-1.232442365   -8.116596177   -0.149892864   
-1.062682507   -5.5814937   1.669646251   
-1.85009289   -12.00108988   0.664010494   
-1.229124527   -10.46028104   0.476056119   
-1.557298257   -8.096257313   -0.073964838   
-1.256878587   -8.109812845   -0.149838103   
-1.061932279   -5.485896233   1.642016159   
-1.893885173   -12.03974529   0.666467576   
-1.581938026   -8.090459803   -0.073955867   
-1.281597076   -8.10493158   -0.149819849   
-1.929390005   -12.02500493   0.665976195   
-1.455941612   -11.76716528   0.535930028   
-1.608115989   -8.092434216   -0.074018668   
-1.306615716   -8.101948568   -0.149838103   
-1.96417742   -12.00621855   0.665266363   
-1.486881843   -11.72201064   0.534078708   
-2.607285101   -10.87509589   0.415740174   
-1.636300157   -8.104125095   -0.074171167   
-1.332277115   -8.102834099   -0.149929387   
-1.998867787   -11.98733248   0.664556532   
-1.564423307   -12.03737299   0.548663368   
-2.638749437   -10.85927743   0.415442956   
-1.660150992   -8.09416895   -0.074126314   
-1.357295256   -8.099695563   -0.149947641   
-2.034798759   -11.97622121   0.664283542   
-1.605167907   -12.06123379   0.549972822   
-2.670619177   -10.84530856   0.415220064   
-1.686607073   -8.096869446   -0.074198086   
-1.3834845   -8.103377192   -0.150093672   
-2.067955967   -11.94926029   0.663136868   
-1.642972634   -12.06219159   0.550243785   
-2.698799488   -10.81670312   0.414439929   
-1.710198366   -8.085786916   -0.074144255   
-1.409537847   -8.105990189   -0.150221465   
-2.103912693   -11.93892713   0.662918477   
-1.683141951   -12.07985153   0.551282277   
-2.729522878   -10.79868387   0.414068442   
-1.736256747   -8.08636825   -0.074198086   
-1.435271596   -8.106550362   -0.150312734   
-2.050276572   -8.084681827   -0.300005635   
-2.139120547   -11.92455368   0.662481694   
-1.717376624   -12.05485025   0.550379207   
-1.764463932   -8.096635528   -0.074341614   
-1.461731339   -8.11096477   -0.150477035   
-2.074075981   -8.074481575   -0.299861838   
-2.173542586   -11.90614758   0.661826461   
-1.756943015   -12.06731928   0.551191976   
-1.792966344   -8.107782519   -0.07449412   
-1.487871016   -8.113326352   -0.150604827   
-2.100347908   -8.073883328   -0.300077518   
-1.799247369   -12.09744412   0.552817514   
-1.818488946   -8.105170321   -0.074521031   
-1.514405648   -8.117569015   -0.150769112   
-2.126890319   -8.074166688   -0.300329139   
-1.836803347   -12.09482976   0.552952995   
-1.846897082   -8.115153724   -0.074664567   
-1.540234703   -8.117796189   -0.150860397   
-2.153711796   -8.075327839   -0.300616702   
-1.870228578   -12.06544525   0.551869323   
-3.000551452   -11.14828634   0.429188293   
-1.875158783   -8.124064667   -0.074799132   
-1.562859793   -8.101251527   -0.150641335   
-2.178215737   -8.067717503   -0.30058076   
-1.903022693   -12.03300943   0.550650169   
-3.151106873   -11.566155   0.445645523   
-1.900757904   -8.121194339   -0.074826043   
-1.586552315   -8.090532339   -0.150531796   
-2.204274293   -8.065817224   -0.300760498   
-1.254994746   -5.333657713   1.610157001   
-1.135365986   -5.800572091   1.673546072   
-1.938657903   -12.0192241   0.550288906   
-3.182060697   -11.54005624   0.445013982   
-1.924279176   -8.109487685   -0.07477222   
-1.610389227   -8.080723389   -0.150440527   
-2.231140745   -8.066722109   -0.30104806   
-1.272020097   -5.332582189   1.611002909   
-1.125374207   -5.657395903   1.633226153   
-1.971632827   -11.98956243   0.549205234   
-3.17071515   -11.36275759   0.438549948   
-1.948681963   -8.101600918   -0.074754279   
-1.635768153   -8.078684454   -0.150495288   
-2.256147911   -8.060801951   -0.301084002   
-1.288374254   -5.328654589   1.611002909   
-2.00626034   -11.97064912   0.548618247   
-1.97376505   -8.096555565   -0.074763249   
-1.661754132   -8.07950411   -0.150604827   
-2.281139718   -8.054803046   -0.301119944   
-1.30288957   -5.317221935   1.608747351   
-1.156195952   -5.631534124   1.627777574   
-2.042472018   -11.96148374   0.548482766   
-3.236533324   -11.32963655   0.438029867   
-2.000034369   -8.096286631   -0.074817072   
-1.690213515   -8.091984771   -0.150933412   
-2.307217191   -8.052570603   -0.301299682   
-1.319658857   -5.315061742   1.609311209   
-1.199392114   -5.752293681   1.663738487   
-2.07813271   -11.9492556   0.548211862   
-3.333423094   -11.53469957   0.446351361   
-2.023650187   -8.085262575   -0.07477222   
-1.716898279   -8.095564264   -0.151097713   
-2.339144419   -8.070410546   -0.302234282   
-1.335724902   -5.310057576   1.609029279   
-2.113737617   -11.93692204   0.5479409   
-3.363748457   -11.50715325   0.445682657   
-2.049429043   -8.08289353   -0.074808102   
-1.742989669   -8.096122945   -0.151207236   
-2.371765354   -8.090047614   -0.303240766   
-2.13227486   -11.83010077   0.543335249   
-3.402152551   -11.50732015   0.446091306   
-2.075212299   -8.080441929   -0.074843984   
-1.7703811   -8.102459411   -0.151426298   
-2.401687556   -8.099979537   -0.303887804   
-2.09448954   -11.41965865   0.524777045   
-3.449749989   -11.53799835   0.44768874   
-2.100999725   -8.077908726   -0.074879866   
-1.796745841   -8.103822891   -0.151554091   
-2.429110096   -8.101188602   -0.304211309   
-2.12804885   -11.40532272   0.524415781   
-3.483974934   -11.52353383   0.447540146   
-2.128064706   -8.080127142   -0.074960608   
-1.822696637   -8.103149746   -0.15164536   
-2.456562366   -8.102304605   -0.304534813   
-2.159863909   -11.38205607   0.523648193   
-3.521649252   -11.52043654   0.447837335   
-2.157223848   -8.089985853   -0.075113114   
-1.84821537   -8.100443792   -0.151700137   
-2.48257977   -8.098551542   -0.304678609   
-2.127966873   -11.0291218   0.507708898   
-3.5563869   -11.50766844   0.447763038   
-2.184118373   -8.091053052   -0.075184878   
-1.873734654   -8.097657198   -0.151754898   
-2.508893229   -8.095670532   -0.304858347   
-3.592271048   -11.49861148   0.447837335   
-2.209458297   -8.086243166   -0.075202819   
-1.89971107   -8.09673832   -0.151846168   
-1.593533094   -8.094424022   -0.230149311   
-2.535511083   -8.093656807   -0.305074026   
-3.725629712   -11.79819062   0.459948075   
-2.234789063   -8.081354531   -0.07522076   
-1.926624909   -8.099625977   -0.152010468   
-1.620515988   -8.100278533   -0.230456066   
-2.566363677   -8.104894779   -0.305792948   
-3.76697377   -11.80288834   0.460579616   
-2.260380312   -8.077348455   -0.075247671   
-1.954980433   -8.108256126   -0.152284292   
-1.645160512   -8.094288838   -0.230428186   
-2.594567626   -8.1074528   -0.306188335   
-3.810528879   -11.81410195   0.461471212   
-2.287057469   -8.07711075   -0.075310472   
-1.980321609   -8.104162771   -0.1523208   
-1.670591983   -8.092140973   -0.230511842   
-2.620966459   -8.104209056   -0.306368073   
-3.838395044   -11.7767024   0.460468185   
-2.315407037   -8.082553534   -0.075427089   
-2.005896532   -8.100961519   -0.152375577   
-1.69643608   -8.091869414   -0.230651272   
-2.647059121   -8.099929057   -0.306511869   
-2.339636402   -8.073490383   -0.075409148   
-2.033416573   -8.105436808   -0.15257637   
-1.722502197   -8.092492829   -0.230818597   
-2.672523754   -8.093668663   -0.306583753   
-2.367207126   -8.07587077   -0.07549886   
-2.058274294   -8.099159837   -0.15257637   
-1.748377038   -8.092055231   -0.230958027   
-2.700504621   -8.094911211   -0.306943199   
-2.390551321   -8.063776691   -0.075454008   
-2.079373938   -8.078283477   -0.152302546   
-1.775121811   -8.095441339   -0.231209007   
-2.725007642   -8.08564084   -0.306907257   
-2.414992399   -8.055446212   -0.075445037   
-2.106417708   -8.080573235   -0.152466846   
-1.801469559   -8.096787009   -0.231404212   
-2.770043348   -12.31338226   0.570472648   
-4.040634733   -11.78071614   0.462994349   
-3.822347751   -11.13099122   0.008010903   
-2.438534339   -8.044172136   -0.075409148   
-2.135791897   -8.091474131   -0.152795432   
-1.830043251   -8.107798593   -0.231878293   
-1.426765733   -5.413060117   1.585005876   
-2.78936108   -12.22398819   0.566724886   
-4.087553227   -11.79942451   0.464220267   
-3.860738962   -11.13149421   0.008019752   
-2.159057211   -8.079087664   -0.152685908   
-1.856024337   -8.107018415   -0.232017723   
-2.811760447   -12.15016518   0.563699593   
-4.125714117   -11.792488   0.464443159   
-3.916028789   -11.17999887   0.008063315   
-2.183572201   -8.071460442   -0.152667654   
-1.883148354   -8.111023245   -0.232296598   
-4.578200386   -19.51059438   0.905829658   
-4.167532815   -11.79579338   0.4650747   
-3.931302194   -11.1141946   0.008024518   
-2.52262993   -8.053832212   -0.07571416   
-2.208324788   -8.064723407   -0.152667654   
-1.908939932   -8.109099502   -0.232408134   
-1.416124767   -5.178810719   1.52016711   
-4.212432823   -11.8074228   0.466040593   
-3.996999455   -11.19060357   0.008088501   
-2.556381418   -8.074654675   -0.07598329   
-2.231454591   -8.052129313   -0.152558116   
-1.933113209   -8.10028779   -0.232324479   
-4.253717458   -11.80854693   0.466597837   
-4.025206584   -11.16135629   0.008076249   
-2.584189321   -8.076297233   -0.076072995   
-2.260737165   -8.061611279   -0.152868462   
-1.958660464   -8.097233828   -0.232408134   
-4.295048817   -11.80952742   0.467155081   
-4.055666768   -11.13861822   0.008068761   
-2.288461339   -8.065218062   -0.15306927   
-1.986825287   -8.104778468   -0.232798559   
-2.621741833   -8.095324866   -0.385362324   
-4.334704102   -11.80567602   0.467526567   
-4.231277145   -11.51094773   0.008347839   
-2.31457371   -8.062963968   -0.15316054   
-2.013849737   -8.107375862   -0.233049539   
-2.650294011   -8.098637192   -0.385905233   
-4.369513776   -11.78857368   0.467377973   
-4.33475924   -11.68166896   0.008481252   
-2.343760646   -8.071188295   -0.153452618   
-2.039689111   -8.105037453   -0.233161075   
-2.676696084   -8.09521029   -0.386131432   
-4.354442459   -11.62523773   0.008449941   
-2.37358359   -8.081226915   -0.153781218   
-2.063557817   -8.094866933   -0.233049539   
-2.702152085   -8.088855038   -0.386221912   
-4.384783008   -11.59779285   0.008439731   
-2.398934683   -8.075824039   -0.153817726   
-2.086883516   -8.082690297   -0.232882214   
-2.723761408   -8.071061801   -0.385769513   
-2.423987197   -8.069383013   -0.15383598   
-2.116981136   -8.096558918   -0.23346783   
-4.050733991   -11.78979028   0.343859226   
-3.829272909   -11.13762977   -0.10565893   
-2.455706306   -8.084869264   -0.154274104   
-2.141299371   -8.088093851   -0.233412055   
-3.133194524   -11.7231341   0.548482766   
-4.093440048   -11.79619462   0.344410688   
-3.875561565   -11.16077982   -0.105990853   
-2.484901445   -8.091633607   -0.154547927   
-2.169208784   -8.09307219   -0.233746705   
-3.208019794   -11.85714841   0.555210699   
-4.130602391   -11.78641072   0.344493419   
-3.913424027   -11.15921768   -0.106089536   
-2.512975479   -8.094475883   -0.154748736   
-2.195336389   -8.091202602   -0.233886135   
-1.533412212   -5.690568277   1.608092056   
-3.243326359   -11.84339605   0.555030038   
-4.16807752   -11.77745213   0.344603688   
-3.947975553   -11.14810107   -0.106098506   
-2.541988346   -8.100083256   -0.155004305   
-2.21882602   -8.079609759   -0.233746705   
-3.268173398   -11.79199495   0.553088417   
-4.205872606   -11.76931597   0.344741554   
-3.984179081   -11.1415863   -0.10615233   
-2.570152389   -8.102729863   -0.155205113   
-2.243603487   -8.072764714   -0.233746705   
-4.245013802   -11.76481942   0.344989717   
-4.025813065   -11.15000169   -0.106349688   
-2.596525379   -8.099567079   -0.155296383   
-2.269442296   -8.069692811   -0.233858255   
-4.288615335   -11.77240438   0.345596314   
-4.055892333   -11.1263244   -0.106242035   
-2.622594822   -8.095368039   -0.155369414   
-2.299660519   -8.081921109   -0.23441599   
-4.33471836   -11.78639841   0.34639591   
-4.27787997   -11.62433499   -0.111122195   
-2.648351892   -8.090134653   -0.155424175   
-2.32721003   -8.084433779   -0.234694851   
-4.364595584   -11.75617666   0.345899612   
-4.756823957   -11.50218934   0.008472404   
-4.37968653   -11.78925518   -0.112826656   
-2.67504352   -8.087666359   -0.155533714   
-2.352281099   -8.078215961   -0.234722746   
-4.395030237   -11.7277539   0.345458449   
-4.794014741   -11.49215583   0.008475807   
-4.367733591   -11.64749123   -0.111597646   
-2.698575839   -8.075628327   -0.155460683   
-2.379030546   -8.077672908   -0.234917951   
-4.723322072   -11.30935853   -0.440842202   
-2.109250772   -5.023721551   1.437534991   
-4.378648089   -11.57583927   0.341377676   
-4.833903538   -11.48845506   0.008483975   
-4.381854601   -11.57698811   -0.111050423   
-2.724937913   -8.072047865   -0.155551968   
-2.405513601   -8.076084075   -0.235085261   
-4.767695392   -11.31783815   -0.44174086   
-1.675155472   -4.968075813   1.484478591   
-4.406654734   -11.54274043   0.340798677   
-3.886051502   -11.41044777   0.21776964   
-4.872251747   -11.48093517   0.008489421   
-4.418065119   -11.56535853   -0.111068364   
-3.798773395   -11.14015835   -0.214899389   
-2.432585486   -8.076323832   -0.235308362   
-4.800832592   -11.29947887   -0.441597064   
-1.681393115   -4.936500154   1.476578114   
-4.438812269   -11.52077133   0.340550513   
-3.924617405   -11.40887158   0.217968332   
-4.872432549   -11.38411261   0.00842884   
-4.45316654   -11.55081679   -0.111059394   
-3.83846803   -11.1445218   -0.21520972   
-2.466379979   -8.098466073   -0.236172852   
-4.008111755   -9.353851894   -0.366038492   
-1.719380091   -4.997736887   1.496465564   
-4.471600696   -11.50057739   0.340357513   
-4.089870338   -11.77172715   0.225139411   
-4.058865549   -9.403410741   0.006971508   
-4.494384378   -11.55201105   -0.111202929   
-3.877568506   -11.14685813   -0.215483559   
-2.492096552   -8.093727492   -0.236256508   
-4.047493766   -9.366279812   -0.367009034   
-2.139537484   -4.925623784   1.416871252   
-4.505402436   -11.4830827   0.340247214   
-4.132917766   -11.77893696   0.22551875   
-4.979708914   -11.44019006   0.008492824   
-4.532362146   -11.54468363   -0.111265723   
-3.914068064   -11.14151299   -0.215611336   
-2.520183897   -8.096542406   -0.236563263   
-4.944949579   -11.34734553   -0.445227613   
-2.153863181   -4.917265349   1.416361037   
-4.520005316   -11.41715793   0.338703127   
-4.170371404   -11.76997188   0.225590991   
-5.052162266   -11.51001644   0.008556127   
-4.569968976   -11.53630276   -0.111319553   
-3.956254132   -11.15206693   -0.21604946   
-2.548912055   -8.101168742   -0.236925793   
-4.954410705   -11.27448132   -0.442963024   
-2.161125799   -4.89294461   1.411258879   
-4.207472174   -11.75994575   0.225645186   
-5.087450546   -11.49446261   0.008556127   
-4.608680672   -11.53058396   -0.111400288   
-3.995169812   -11.15305494   -0.21630503   
-2.575874669   -8.099979011   -0.237120999   
-4.370769945   -9.864045339   -0.388073405   
-2.169833069   -4.872158961   1.407177153   
-4.237416578   -11.7300559   0.225320043   
-5.128804285   -11.49249802   0.008566337   
-4.649644045   -11.53030146   -0.111534852   
-4.025967809   -11.13134302   -0.216122476   
-2.605300813   -8.106313207   -0.237539304   
-4.395304561   -9.837815515   -0.387570163   
-1.771319147   -4.902904971   1.476033209   
-2.185166546   -4.866361074   1.407432261   
-4.204524808   -11.52819797   0.221689345   
-5.166090228   -11.48126882   0.008569741   
-4.691402363   -11.53172925   -0.111687358   
-4.070044301   -11.14617532   -0.216651884   
-2.632319833   -8.104936385   -0.237734509   
-4.387704736   -9.740456228   -0.384263148   
-1.783055726   -4.888408577   1.47330892   
-2.200085975   -4.859634121   1.40743226   
-4.333493517   -11.76951287   0.226584466   
-5.201703054   -11.46627675   0.008570422   
-4.728277915   -11.52098184   -0.11172324   
-4.287853073   -11.63177882   -0.226345358   
-2.657173026   -8.096823193   -0.237734509   
-3.644802814   -8.025415767   -0.31704404   
-1.798044683   -4.882915192   1.47330892   
-2.211773007   -4.845824522   1.405391397   
-4.369581509   -11.75616276   0.226584466   
-4.765896442   -11.51196474   -0.111777063   
-4.355250257   -11.70384186   -0.228006569   
-2.681057482   -8.085786425   -0.237650854   
-3.710594639   -8.104151199   -0.320602705   
-1.820392297   -4.897217071   1.479302404   
-2.218949968   -4.822326832   1.400544348   
-4.369453256   -11.64628115   0.224723967   
-4.805430961   -11.50743885   -0.111875746   
-4.356330851   -11.59776272   -0.226199312   
-2.704898995   -8.07467947   -0.237567184   
-3.745073153   -8.113597753   -0.321429451   
-3.916876945   -9.367685748   -0.45982891   
-1.834732147   -4.889807442   1.478757616   
-2.211763021   -4.768131127   1.386768523   
-4.396311139   -11.60944469   0.224272387   
-4.839936348   -11.49079878   -0.111857805   
-4.38019522   -11.55349158   -0.225596902   
-2.728697799   -8.063502328   -0.237483529   
-3.774585292   -8.112037322   -0.321824869   
-3.966948466   -9.406250087   -0.462317165   
-1.849043629   -4.882356167   1.478212713   
-1.801023835   -5.352667333   1.54096757   
-2.224742803   -4.75781951   1.385748091   
-4.424054538   -11.57535518   0.223874988   
-3.914021158   -11.47329522   0.105157053   
-4.864610379   -11.45104676   -0.111615587   
-4.418478688   -11.54746886   -0.225742934   
-3.807942518   -8.118513833   -0.32254379   
-3.954340524   -9.296592804   -0.457521644   
-1.866418552   -4.882951837   1.480119705   
-2.244688323   -4.762341627   1.389064492   
