X     Y     Z
1.438727172   5.226951427   -0.697279218   
1.186408026   5.017429046   -0.714049105   
1.635386553   4.592278979   -0.715412212   
1.406099728   4.45668842   -0.730556697   
1.184791346   4.295601294   -0.739843298   
0.981917295   4.150677927   -0.751846959   
1.367169888   3.830643778   -0.750673859   
1.177278181   3.723274659   -0.758765572   
0.99517358   3.598805866   -0.762854362   
0.827906835   3.50047607   -0.772191197   
1.162109941   3.244280898   -0.769481886   
1.003010804   3.163872113   -0.77352831   
0.858010431   3.101523947   -0.783396985   
0.720799851   3.043347554   -0.794991737   
1.011029102   2.811835217   -0.787085109   
0.877808985   2.761408058   -0.792522954   
0.734736025   2.653210185   -0.78210146   
0.629251071   2.65888128   -0.806966332   
1.268113762   5.330644466   0.247668405   
1.785866009   5.644992487   0.163313151   
1.449760699   5.239228634   0.098209487   
1.267372727   5.325052597   0.047482448   
4.103963087   11.49007447   0.008304956   
1.736950948   5.486379719   -0.051627368   
1.444290737   5.211674735   -0.098741998   
1.228412143   5.147392149   -0.147632432   
3.985976578   11.14500158   -0.425744852   
1.744976212   5.503048551   -0.261447396   
1.501338746   5.407994188   -0.308581079   
1.302504165   5.449854036   -0.361664323   
2.672767998   7.460879114   -0.574896583   
1.848479976   5.819943479   -0.501504353   
1.677696239   6.029777732   -0.573012214   
1.498701953   6.261104017   -0.652924048   
2.039831455   5.681888211   -0.660727094   
1.730629331   5.438032208   -0.678774421   
1.454756412   5.222512761   -0.697279218   
1.201103084   5.010876067   -0.713637536   
1.651141708   4.591894992   -0.716138254   
1.418265205   4.447646774   -0.729784457   
1.197168891   4.28909559   -0.739351917   
0.99487638   4.148603316   -0.752020527   
1.378582222   3.825506042   -0.750492361   
1.186902609   3.714034987   -0.757621104   
1.007265947   3.599509875   -0.763655032   
0.83727457   3.49221491   -0.770931869   
1.175045111   3.248960571   -0.771443178   
1.011226819   3.156142778   -0.772393495   
0.86542626   3.091391827   -0.781504717   
0.73533726   3.062797011   -0.800657933   
1.021630753   2.814173922   -0.78861343   
0.873000274   2.717376616   -0.780650904   
0.752476366   2.68521508   -0.792212438   
0.638971577   2.663466327   -0.808949022   
1.282120214   5.317017683   0.247216841   
1.800131855   5.629965632   0.16303742   
1.485238889   5.304077899   0.099510031   
1.27971721   5.304614348   0.047334986   
4.13614132   11.46896394   0.00829883   
1.750117923   5.469596335   -0.051519718   
1.445154771   5.153308495   -0.097719712   
1.243258218   5.139712867   -0.147520882   
4.013701018   11.11486175   -0.425061901   
1.770082614   5.523355053   -0.262668905   
1.513062441   5.386059773   -0.307592924   
1.318748042   5.443892288   -0.361535516   
2.69869832   7.461085592   -0.575547764   
1.863280626   5.804755534   -0.500685862   
1.67945493   5.965171084   -0.567359549   
1.515792537   6.247774964   -0.652015912   
2.056237306   5.672799954   -0.660400699   
1.747912885   5.434588025   -0.679010636   
1.470771963   5.218025375   -0.697279219   
1.216704342   5.008130085   -0.713774745   
1.666909856   4.591457958   -0.71686424   
1.433115942   4.447036459   -0.73040226   
1.206836353   4.273061158   -0.737222661   
1.009227674   4.152230168   -0.753235687   
1.391657159   3.824955117   -0.751218346   
1.199196559   3.713178716   -0.758193368   
1.018037485   3.595459959   -0.763454879   
0.8509859   3.501980728   -0.773660451   
1.18868956   3.255424675   -0.773840357   
1.032905075   3.190087222   -0.781472417   
0.87649527   3.094331373   -0.782923963   
0.744730335   3.060526672   -0.800657934   
1.028928625   2.807394637   -0.787594549   
0.902480205   2.779823256   -0.799382318   
0.749952386   2.644950177   -0.781008371   
0.645553802   2.654970186   -0.806966332   
1.333762796   5.457651954   0.253944774   
1.812478146   5.609197095   0.162596256   
1.494963248   5.27640924   0.099076519   
1.282923558   5.247238804   0.046857906   
4.183967436   11.49098753   0.008324016   
1.769351412   5.471812919   -0.051591486   
1.259972754   5.139757811   -0.147632432   
4.049151176   11.10625149   -0.425205668   
1.803024709   5.567317837   -0.26502144   
1.555786774   5.473595174   -0.312863136   
1.343056881   5.470833674   -0.363596645   
2.724655106   7.461202796   -0.576198886   
1.880157979   5.796167877   -0.500440292   
1.687107947   5.922638582   -0.563803892   
1.534003185   6.239230907   -0.651612329   
2.073289982   5.665531199   -0.660291862   
1.76365692   5.426366792   -0.678656286   
1.486773821   5.213488317   -0.697279218   
1.231589835   5.002450053   -0.713500385   
1.688138626   4.605830892   -0.719913495   
1.449199968   4.450134405   -0.731637865   
1.222379538   4.277874912   -0.738696743   
1.019370974   4.138595912   -0.751326133   
1.40135108   3.815129107   -0.75012937   
1.213628234   3.718813996   -0.760100775   
1.027444575   3.586668512   -0.762253846   
0.859621743   3.490809014   -0.7717714   
1.192932926   3.236194987   -0.770135689   
1.036630365   3.168391083   -0.776932928   
0.884378424   3.086023413   -0.781504717   
0.749939727   3.041289651   -0.796223527   
1.036865689   2.802410974   -0.78708511   
0.906193709   2.762377124   -0.795161175   
0.764694514   2.665752969   -0.787840136   
0.648418803   2.631559655   -0.800451664   
1.354342399   5.469049465   0.254667213   
1.828437272   5.599809142   0.162485958   
1.510317527   5.268914536   0.099022331   
1.31127971   5.292779918   0.047300292   
4.230587162   11.5090709   0.008346478   
1.784266859   5.460655564   -0.051537659   
1.278868081   5.148479702   -0.147994963   
4.084241322   11.09658969   -0.425313522   
1.844020548   5.634866326   -0.268504974   
1.575607572   5.479351975   -0.313466991   
1.357907749   5.458939949   -0.363081362   
2.747532959   7.452808348   -0.576198885   
1.909417198   5.825413819   -0.503468803   
1.701685619   5.904994994   -0.562618654   
1.550973196   6.225806356   -0.650704251   
2.091006421   5.66007622   -0.660400699   
1.779367055   5.418100162   -0.678301938   
1.502761525   5.208902536   -0.697279218   
1.247890322   5.002492471   -0.714049106   
1.69436443   4.579287742   -0.716573846   
1.458522631   4.432527979   -0.729475527   
1.230841122   4.257994132   -0.735912313   
1.029201567   4.123983104   -0.74924301   
1.408946328   3.799747338   -0.747951415   
1.227490997   3.722531323   -0.761626656   
1.041443155   3.593851009   -0.76445576   
0.868433811   3.480566327   -0.770092279   
1.213066771   3.259960613   -0.776673306   
1.045429025   3.162421629   -0.776252004   
0.891407231   3.074896994   -0.779375937   
0.757387361   3.031452418   -0.794252643   
1.03903004   2.782004578   -0.782245392   
0.908898351   2.74218785   -0.790148545   
0.780375496   2.689261685   -0.795491706   
0.65672156   2.630488354   -0.800734904   
1.369899336   5.46002398   0.25444146   
1.838405378   5.572339911   0.161851794   
1.54039788   5.312270149   0.099925483   
1.314608921   5.237328293   0.046840558   
4.274225717   11.5185382   0.008362814   
1.800071092   5.452307168   -0.051510747   
1.526818189   5.257890071   -0.099965093   
1.298804566   5.16101146   -0.148469028   
4.121398573   11.0924386   -0.425637027   
1.899873995   5.745844579   -0.274069604   
1.595199404   5.484080162   -0.31401598   
1.376843906   5.463457464   -0.363661048   
2.761688283   7.420975337   -0.574390123   
2.306720516   6.965268723   -0.602591029   
1.717285663   5.891142181   -0.561798136   
1.572257499   6.229700939   -0.651612329   
2.107666678   5.651771547   -0.660183083   
1.796606609   5.414500716   -0.678538209   
1.51595666   5.194746549   -0.69600356   
1.263959996   5.001521061   -0.714460674   
1.708751667   4.574994647   -0.716719042   
1.473049584   4.43084542   -0.729938894   
1.246113401   4.261772488   -0.73722266   
1.044021516   4.129398809   -0.750805366   
1.417839409   3.788038996   -0.746499446   
1.237664667   3.715022597   -0.760863715   
1.05081048   3.58499761   -0.763254725   
0.877670299   3.472197997   -0.76883295   
1.218258092   3.243432646   -0.773622441   
1.052041109   3.149962055   -0.773982259   
0.904117454   3.083336046   -0.782214368   
0.763117102   3.015021142   -0.790557331   
1.054382516   2.796900907   -0.787339801   
0.913631648   2.728410705   -0.786982646   
0.772096799   2.630551868   -0.778822194   
0.667845735   2.640548222   -0.804417101   
1.849486622   5.548655248   0.161327914   
1.566537329   5.341098844   0.100557694   
1.328699264   5.225517697   0.046771167   
4.311648708   11.51098946   0.008366899   
1.821219683   5.460039061   -0.051636338   
1.579853096   5.378851025   -0.102356514   
1.317348434   5.167657556   -0.148775784   
4.158217758   11.08722739   -0.425924589   
1.926039168   5.765571366   -0.275291112   
1.628080603   5.533760189   -0.317145164   
1.394586405   5.463075414   -0.363918689   
2.790755746   7.429273785   -0.575692483   
2.331241092   6.967610371   -0.603409521   
1.733098411   5.878204339   -0.561068754   
1.592841072   6.230631433   -0.652217733   
2.124295716   5.64341812   -0.659965467   
1.816365731   5.418377978   -0.679719275   
1.53188673   5.190070953   -0.696003559   
1.280526645   5.002417823   -0.715146604   
1.71998738   4.562324355   -0.715557408   
1.479086762   4.40382697   -0.726232079   
1.263378889   4.272119184   -0.739679503   
1.052531944   4.109957862   -0.747854221   
1.435015042   3.798390202   -0.749403385   
1.243733325   3.695392078   -0.757621105   
1.066259658   3.596786626   -0.766457462   
0.885408606   3.458123024   -0.766314237   
1.22474332   3.230554011   -0.771443178   
1.062945519   3.150410814   -0.774890158   
0.910533934   3.070301097   -0.779612507   
0.770197285   3.004216439   -0.788340099   
1.06846053   2.808113756   -0.791415328   
0.929416017   2.747523743   -0.793314386   
0.78153227   2.632781473   -0.780188512   
0.675943697   2.638487009   -0.804417103   
3.841782837   11.40895697   0.332058103   
1.587750017   5.352562962   0.10086477   
1.347218577   5.231100151   0.046857906   
4.349065522   11.50331997   0.008370983   
3.805246115   11.29263334   -0.106905881   
1.628804286   5.48324086   -0.104437595   
1.334195944   5.167462883   -0.148887334   
4.181245404   11.04544504   -0.424810251   
3.313105906   9.817409229   -0.469239023   
1.641348457   5.516298127   -0.316431488   
1.413088856   5.465534294   -0.364369568   
2.81035277   7.412283537   -0.575041303   
2.354202141   6.965146359   -0.603818766   
1.748278797   5.863316627   -0.560157041   
1.610452627   6.219936093   -0.651612328   
2.140893536   5.635015941   -0.65974791   
1.83584707   5.421245195   -0.680782265   
1.545816628   5.178694275   -0.695110622   
1.295370706   4.99654819   -0.714872245   
1.736791141   4.564423968   -0.716719043   
1.491003318   4.394590619   -0.725459784   
1.273087741   4.256881562   -0.73771404   
1.066866925   4.113382604   -0.749069383   
1.444559389   3.788456624   -0.748314408   
1.255380705   3.692488175   -0.757811839   
1.07700809   3.592560008   -0.76625731   
0.898467981   3.464854511   -0.768413155   
1.237787689   3.234984901   -0.773404468   
1.072919945   3.148056833   -0.775117133   
0.9246941   3.083314456   -0.783633555   
0.782089689   3.012158008   -0.791050023   
1.071870869   2.791281511   -0.787594551   
0.938776577   2.747397691   -0.794105876   
0.803157755   2.675516121   -0.793578814   
0.689093306   2.65589518   -0.810365285   
1.397916921   5.362117278   0.250467916   
3.894471999   11.44916639   0.333574623   
1.617665986   5.39267776   0.101713741   
1.361242146   5.219201691   0.046788515   
4.385049935   11.49179132   0.008372344   
3.846640083   11.30078515   -0.107094269   
1.643893052   5.472472536   -0.104328064   
1.351054657   5.167213787   -0.148998884   
4.215112535   11.03256512   -0.424810251   
3.346432999   9.816653767   -0.469691452   
1.665456771   5.535139983   -0.317803944   
1.43389442   5.476619093   -0.365400132   
2.833080248   7.40362686   -0.575041304   
2.378780119   6.967322828   -0.604637316   
1.765971559   5.856971847   -0.560065847   
1.629779841   6.215928798   -0.651713239   
2.157459437   5.626565003   -0.659530294   
1.850542242   5.409949771   -0.680073624   
1.56055099   5.170129418   -0.694600347   
1.30968762   4.988718202   -0.714323466   
1.751495766   4.560921574   -0.717009438   
1.51056461   4.407753588   -0.728394359   
1.286141648   4.252955852   -0.73771404   
1.081983309   4.11961488   -0.750805366   
1.459000869   3.791349117   -0.749766377   
1.266384327   3.687691109   -0.757621105   
1.084329889   3.577049649   -0.763655032   
0.912818505   3.476266773   -0.771561532   
1.244191046   3.222067833   -0.771225263   
1.088279134   3.161325818   -0.779202673   
0.931329577   3.071165001   -0.781268206   
0.786398345   2.990998098   -0.786122924   
1.082176407   2.792488098   -0.788868122   
0.948145087   2.747240024   -0.794897308   
0.805495087   2.653709539   -0.787840136   
0.696507087   2.65098582   -0.80951556   
1.401357159   5.308543024   0.248165091   
3.945819799   11.4844333   0.334953249   
1.640007202   5.406825361   0.102075005   
1.381333346   5.230469824   0.046927301   
4.421722933   11.48201685   0.008375066   
3.882267636   11.29176738   -0.107121181   
1.659221716   5.462620137   -0.104236794   
1.363831166   5.151448821   -0.148664248   
4.247501973   11.01585178   -0.424666484   
3.371330545   9.791228084   -0.468967583   
1.68155868   5.527138688   -0.317639256   
1.455548284   5.49052193   -0.366623935   
2.858296127   7.401413091   -0.575547764   
2.405017948   6.974124994   -0.605865053   
1.784803298   5.854383982   -0.560339372   
1.648842404   6.210899094   -0.651713239   
2.175070104   5.620846225   -0.659639072   
1.862591307   5.39110734   -0.678420074   
1.575536813   5.162471416   -0.694217626   
1.320151922   4.966488132   -0.711716955   
1.764765245   4.55368113   -0.716719042   
1.524080301   4.40309847   -0.728394359   
1.298029613   4.245216302   -0.737058865   
1.090820585   4.101999965   -0.748201418   
1.469913658   3.78502159   -0.749403384   
1.273510278   3.671731644   -0.755141491   
1.100179731   3.58963109   -0.76705798   
0.925991468   3.482898888   -0.77366045   
1.25052683   3.209142038   -0.769046058   
1.090616708   3.136814626   -0.773982259   
0.939038454   3.062719499   -0.779849018   
0.797814725   2.997000394   -0.788340098   
1.092147341   2.792757304   -0.789887004   
0.955934045   2.742496709   -0.794369688   
0.817019382   2.662261139   -0.791119348   
0.703157674   2.643275635   -0.807816055   
1.41944261   5.310974183   0.248481145   
3.98496723   11.48360688   0.335284115   
1.659812051   5.412283003   0.102273697   
1.399698284   5.234901952   0.047005368   
4.396797657   11.31367055   0.008262074   
3.927060695   11.30908666   -0.107399281   
1.698867218   5.532054712   -0.10566069   
1.376782437   5.136619343   -0.148357493   
4.282727666   11.00649355   -0.424810251   
3.398072479   9.77140371   -0.468515184   
1.701149777   5.530542779   -0.318133319   
1.478594392   5.509162077   -0.368169782   
2.878454703   7.386103826   -0.575041303   
2.438203987   7.000596595   -0.608811728   
1.801875918   5.846025825   -0.560065847   
1.667631151   6.204850791   -0.651612329   
2.193750829   5.617851017   -0.660074305   
1.877159361   5.379742088   -0.677711433   
1.591367641   5.15761331   -0.694217625   
1.333580843   4.955718764   -0.710756664   
1.77872737   4.548245859   -0.716719044   
1.531712994   4.381614225   -0.72561422   
1.313087047   4.24781162   -0.738205363   
1.102632248   4.095781372   -0.747680594   
1.48474834   3.788734687   -0.751036851   
1.279252188   3.652057733   -0.751898938   
1.106547827   3.571264978   -0.763855243   
0.936926575   3.480985745   -0.773870319   
1.263223527   3.212556352   -0.770789433   
1.095718123   3.120589302   -0.770804673   
0.940663409   3.034766471   -0.773462619   
0.803727206   2.982373415   -0.785137482   
1.105324668   2.801087282   -0.793198343   
0.955375755   2.714075188   -0.786982645   
0.823187946   2.653311012   -0.789206457   
0.707273566   2.626289177   -0.803284136   
1.409639778   5.210163828   0.243965795   
4.026461628   11.48925057   0.335808009   
1.683514866   5.430085399   0.102707217   
1.41313964   5.220930485   0.046918625   
4.425645342   11.28523244   0.008251183   
3.95545078   11.2790564   -0.107228834   
1.725614092   5.558327336   -0.106263114   
1.410072492   5.197008476   -0.150225905   
4.319032001   10.99981455   -0.425061902   
3.427372868   9.759047939   -0.468424705   
1.729375503   5.561529431   -0.320219452   
1.497059059   5.510378047   -0.368556258   
2.90037141   7.375381616   -0.574896583   
2.457685719   6.987442447   -0.608320586   
1.825727666   5.859485266   -0.561889272   
1.676473794   6.162265245   -0.64767723   
2.209882651   5.608319681   -0.65974791   
1.89926572   5.389879224   -0.679719276   
1.60806947   5.15554747   -0.694600347   
1.350861181   4.959249663   -0.711854163   
1.796667888   4.552890801   -0.718316269   
1.54745059   4.383415733   -0.726695387   
1.328761082   4.252237418   -0.739679504   
1.115710516   4.094279564   -0.748027791   
1.495280191   3.781418165   -0.750492362   
1.287504271   3.639786836   -0.750182265   
1.111349328   3.548218837   -0.759651625   
0.946830642   3.475264959   -0.773240655   
1.272713642   3.207758666   -0.770571519   
1.103659443   3.112623616   -0.769669802   
0.953746154   3.043919597   -0.776537563   
0.808537178   2.963998148   -0.780949419   
1.117132426   2.805768819   -0.795490855   
0.968543916   2.724764418   -0.790939978   
0.836217822   2.666376565   -0.7938521   
0.715327534   2.624106958   -0.803284136   
1.450156385   5.29542051   0.248165091   
4.058689646   11.46836246   0.335559846   
1.698073076   5.418216045   0.102580773   
1.427036752   5.208855331   0.046849234   
4.487474945   11.34041095   0.008301553   
4.001385368   11.29891703   -0.107533846   
1.751340482   5.580672169   -0.106792507   
1.416745033   5.158920653   -0.149249864   
4.355334949   10.99301574   -0.425313523   
3.45729695   9.748486407   -0.468424704   
1.740441823   5.537146623   -0.319121475   
1.513693037   5.504796633   -0.368491825   
2.927767254   7.378500439   -0.575837145   
2.47877795   6.978930209   -0.608238749   
1.848482157   5.869054103   -0.563348036   
1.686655527   6.125439339   -0.644347536   
2.225241802   5.596894697   -0.659203898   
1.918122901   5.390575829   -0.680546052   
1.623282433   5.148697905   -0.69434518   
1.366596104   4.956992152   -0.712128525   
1.808431497   4.541841945   -0.717445086   
1.564540725   4.388884956   -0.72839436   
1.33734377   4.234030517   -0.737222659   
1.128004513   4.089888035   -0.747854222   
1.504687816   3.771332746   -0.749403385   
1.301636692   3.644139551   -0.751898937   
1.126074106   3.556935424   -0.762253845   
0.956708485   3.469516181   -0.772610992   
1.287264219   3.215617758   -0.773404469   
1.116814719   3.119308857   -0.772166521   
0.965133739   3.047463327   -0.778193263   
0.817626826   2.961503832   -0.780949421   
1.123572448   2.796944261   -0.793962532   
0.971033525   2.705438511   -0.786191214   
0.845847597   2.668383413   -0.79521842   
0.723629926   2.622824409   -0.803567376   
1.471465053   5.309237379   0.24902301   
4.03498657   11.29112555   0.330734611   
1.756656892   5.545470047   0.105091551   
1.449422882   5.227579021   0.047057414   
4.512975793   11.30337238   0.008284536   
4.027613225   11.26304817   -0.107309569   
1.75636159   5.537151403   -0.106062306   
1.434707065   5.162254651   -0.149472964   
4.386815201   10.97403411   -0.425097843   
3.491903808   9.751001078   -0.469058064   
1.770119045   5.571748962   -0.321427191   
1.536192608   5.520316144   -0.369844463   
2.950760984   7.37040965   -0.575909505   
2.498831392   6.967540151   -0.607911341   
1.865271236   5.85955938   -0.562983374   
1.688882557   6.060816136   -0.63809173   
2.243512792   5.592809068   -0.659530293   
1.930958574   5.374386091   -0.679246849   
1.635758293   5.13329808   -0.692941966   
1.385524177   4.966133354   -0.714049105   
1.823094794   4.538108591   -0.71773548   
1.580005906   4.389641959   -0.729321092   
1.351827266   4.234606603   -0.738041569   
1.1421353   4.092099655   -0.748895813   
1.5096411   3.750278027   -0.746136454   
1.313809779   3.642899317   -0.752471142   
1.139369982   3.560929304   -0.763855243   
0.966822673   3.464681161   -0.772191196   
1.294930613   3.20622354   -0.772096979   
1.132670189   3.133269782   -0.776478979   
0.974774899   3.045413161   -0.778429831   
0.835575638   2.990718122   -0.789325542   
1.131784797   2.792587976   -0.793707784   
0.975714181   2.692471078   -0.783289124   
0.850508305   2.65478277   -0.791939207   
0.731157405   2.618744606   -0.803000894   
1.486128063   5.298927169   0.248752078   
4.131695835   11.45076493   0.335780442   
1.759638464   5.496252254   0.104260648   
1.474638356   5.25584272   0.047352334   
4.559963442   11.32008325   0.008306999   
4.075053179   11.28637902   -0.107650462   
1.758079955   5.484131478   -0.10514955   
1.448102328   5.149168214   -0.149221969   
4.422704822   10.96608493   -0.425313522   
3.524520347   9.747757837   -0.469420013   
1.789951796   5.574848491   -0.321921284   
1.553392034   5.516537983   -0.369908866   
2.972238653   7.358547911   -0.575692484   
2.516463211   6.94953292   -0.607011012   
1.883849245   5.855705547   -0.563165705   
1.692619034   6.002940101   -0.632542239   
2.264389986   5.595114358   -0.660618257   
1.947437874   5.36843632   -0.679246848   
1.649675107   5.122591188   -0.692176583   
1.402368255   4.967579272   -0.714872245   
1.834035823   4.525158319   -0.716573845   
1.59481555   4.388488158   -0.729938894   
1.362086527   4.221989933   -0.736567487   
1.154684312   4.088576265   -0.748895813   
1.522619718   3.749273451   -0.746862439   
1.326323322   3.642541104   -0.753234083   
1.149385044   3.554620289   -0.763254726   
0.975322182   3.454171201   -0.770512073   
1.304761058   3.202235784   -0.77209698   
1.143279253   3.132524672   -0.777159902   
0.991888284   3.066444408   -0.784579661   
0.842637852   2.980679541   -0.787354657   
1.138883165   2.78552214   -0.792688959   
0.990266794   2.706676296   -0.788301757   
0.861019386   2.659482283   -0.794125328   
0.739709613   2.618334893   -0.803567376   
1.507286808   5.311641446   0.249564847   
4.179466832   11.47278757   0.336800606   
1.781109109   5.505096929   0.104531595   
1.4809252   5.216663456   0.047040066   
4.589023976   11.29214344   0.008296789   
4.115824571   11.29073499   -0.107811939   
1.770582781   5.465395582   -0.10489398   
1.486873104   5.225462923   -0.151564462   
4.44314544   10.92006639   -0.424055388   
3.559205401   9.750035792   -0.470053371   
1.842176883   5.677602128   -0.328179652   
1.563746843   5.488712373   -0.368363019   
2.997811448   7.356783552   -0.576271246   
2.537087898   6.939907425   -0.606847278   
2.073913221   6.379296464   -0.614130478   
1.718124107   6.022593894   -0.635165619   
2.284550785   5.595503585   -0.661488663   
1.965264838   5.366166189   -0.679719275   
1.665997154   5.119392002   -0.692431691   
1.415697706   4.956586333   -0.713911897   
1.849033475   4.522257729   -0.717009437   
1.609973287   4.38821257   -0.730711133   
1.375644497   4.219667118   -0.736895074   
1.165057896   4.077439123   -0.747507025   
1.535233598   3.747314343   -0.747406927   
1.338169648   3.640297588   -0.753615553   
1.157546465   3.54269545   -0.761453176   
0.987794836   3.457743571   -0.771981328   
1.314950245   3.199120486   -0.772314895   
1.149517262   3.119863978   -0.774890157   
0.994952197   3.043992514   -0.779612506   
0.850978955   2.975284765   -0.786615616   
1.143367795   2.772181435   -0.789887006   
0.994889974   2.693672321   -0.785399725   
0.866781765   2.649514148   -0.791939206   
0.74932047   2.621585969   -0.805266825   
1.534326411   5.344439555   0.251325836   
4.179451122   11.36421633   0.333988191   
1.793019012   5.484401453   0.104242587   
1.522593746   5.30147847   0.047846762   
4.648681778   11.33907886   0.008341713   
4.159424084   11.3024537   -0.108045179   
1.787964089   5.461838279   -0.104930488   
1.518106302   5.273709521   -0.153098238   
4.483457347   10.92302414   -0.424702426   
3.58979229   9.740945365   -0.470143851   
1.876695771   5.724107489   -0.331199015   
1.586658831   5.504984587   -0.369780031   
3.022263497   7.35216424   -0.576632986   
2.555261653   6.923676195   -0.606110624   
2.131701817   6.48927349   -0.625344556   
1.730248084   5.995309188   -0.632844912   
2.305114083   5.596740976   -0.662467849   
1.981374363   5.359180499   -0.67960114   
1.682624815   5.117083446   -0.692814412   
1.430347666   4.950316379   -0.713637536   
1.865539773   4.522966659   -0.718025876   
1.624114769   4.385105403   -0.731020062   
1.391670287   4.224796211   -0.73853295   
1.179202688   4.079522197   -0.748548616   
1.545971769   3.740768869   -0.747043934   
1.357869487   3.659183073   -0.758384103   
1.164416809   3.527032804   -0.758850956   
0.998941308   3.456575361   -0.772401123   
1.325880243   3.197775768   -0.772968639   
1.157385934   3.111758608   -0.773755285   
1.008247438   3.052919715   -0.782687393   
0.857948039   2.9652121   -0.784644788   
1.150381608   2.765089276   -0.788868124   
1.01157355   2.713202316   -0.791995278   
0.876717669   2.652322484   -0.793578812   
0.757093488   2.618353363   -0.804983583   
1.546257942   5.324357776   0.250603398   
4.247696093   11.44130391   0.336635173   
1.51876479   5.227643965   0.047222221   
4.6624288   11.27393884   0.008304276   
4.196517643   11.29620079   -0.10810798   
1.793095412   5.42120489   -0.104255048   
1.535676004   5.273826008   -0.153237668   
4.517330108   10.91014172   -0.424738368   
3.615828735   9.719587241   -0.469646212   
1.892992411   5.71453194   -0.330979432   
1.602143875   5.495301047   -0.369457987   
3.044805392   7.342857492   -0.576632986   
2.573011749   6.906464954   -0.605292075   
2.154423772   6.491209611   -0.626165133   
1.751700099   6.000477938   -0.63395481   
2.32532482   5.596986412   -0.663338196   
1.998153852   5.354006675   -0.679719275   
1.698941299   5.113779632   -0.693069521   
1.443027363   4.937347731   -0.712402884   
1.881687543   4.522702704   -0.718897115   
1.637214487   4.379176668   -0.730865626   
1.399329458   4.20459465   -0.735748519   
1.192542012   4.078720789   -0.749069382   
1.556684246   3.734192968   -0.746680942   
1.363924272   3.641210823   -0.755522961   
1.178022191   3.531808477   -0.760652448   
1.010912853   3.458186531   -0.773450581   
1.33417839   3.190091343   -0.772096979   
1.169665709   3.115487242   -0.775571081   
1.016993844   3.047968681   -0.782214368   
0.873574544   2.984889904   -0.790557331   
1.159607752   2.763330134   -0.789377563   
1.016155712   2.700155597   -0.789093245   
0.889725962   2.66421872   -0.79795117   
0.761084616   2.602211213   -0.800734907   
4.313296532   11.50965431   0.339034021   
1.78359016   5.344312096   0.10178599   
4.764369777   11.42109183   0.008423395   
4.23782503   11.30106236   -0.108278427   
1.828098164   5.470678852   -0.105313843   
1.558626494   5.29210324   -0.153906954   
4.552321113   10.89991944   -0.424882164   
3.647035777   9.712189371   -0.469827172   
2.962899103   8.853262668   -0.513295348   
1.626334212   5.515246184   -0.371132668   
3.065394461   7.328880948   -0.576271246   
2.587522944   6.880814059   -0.603736929   
2.172428815   6.478903942   -0.625618081   
1.781370202   6.033242603   -0.63799082   
2.344790322   5.59532675   -0.663990985   
2.013520243   5.345063339   -0.679364926   
1.716200097   5.113244709   -0.69370735   
1.455079457   4.922448281   -0.710893873   
1.893257021   4.511434636   -0.718025875   
1.646107203   4.362116522   -0.728857726   
1.416623797   4.213372283   -0.738041569   
1.204491269   4.073154252   -0.748722186   
1.568133256   3.729399573   -0.746680942   
1.385156441   3.663637275   -0.761054451   
1.189790642   3.530963311   -0.761252966   
1.013478577   3.427878353   -0.767363696   
1.343959199   3.185983274   -0.77209698   
1.179218343   3.111884121   -0.775571081   
1.015167299   3.011688124   -0.773699131   
0.88437846   2.987771718   -0.792035467   
1.165818553   2.754416353   -0.787849241   
1.024777293   2.697927199   -0.789357056   
0.896358001   2.656919257   -0.796584794   
0.766072053   2.589747733   -0.79761925   
4.353184512   11.50852226   0.339392454   
3.867317235   11.47063526   0.218690859   
4.826534502   11.47094273   0.008471042   
4.274246285   11.29268444   -0.10832328   
5.001209019   14.81501642   -0.285491971   
1.599966127   5.371601996   -0.156360981   
4.589231934   10.89419122   -0.425205668   
3.678585445   9.705625378   -0.470053372   
2.992924653   8.852643366   -0.51378941   
1.646954513   5.522662822   -0.371969995   
3.086701713   7.316684784   -0.576054224   
2.603669704   6.859798387   -0.602591029   
2.194532006   6.478810928   -0.626256268   
1.805849258   6.047768639   -0.640109706   
2.364267574   5.59360067   -0.664643776   
2.027791834   5.333291762   -0.678656286   
1.730923876   5.10513751   -0.693324688   
1.470741848   4.919859246   -0.711168234   
1.905546348   4.501960287   -0.717445086   
1.65666898   4.349659161   -0.727622121   
1.423198452   4.190324737   -0.734765758   
1.214160209   4.060004476   -0.746986201   
1.578415743   3.721855155   -0.746136454   
1.393939952   3.652950353   -0.759719247   
1.196198093   3.514311353   -0.758450593   
1.028191642   3.438804086   -0.770512073   
1.354109378   3.182743127   -0.772314895   
1.186672544   3.10279389   -0.774209235   
1.032858132   3.03339322   -0.78008553   
0.89993296   3.006399292   -0.797701663   
1.166290796   2.732150004   -0.782500142   
1.032013781   2.692068485   -0.788565566   
0.900160982   2.641409468   -0.792759009   
0.773189074   2.584628842   -0.796769469   
4.387045758   11.49137648   0.339282156   
3.907970038   11.47480648   0.218997942   
4.863266704   11.45976265   0.008473765   
4.311012318   11.28512228   -0.108377103   
5.050509797   14.81095951   -0.285711048   
1.610095983   5.345610942   -0.155747471   
4.627713522   10.89201675   -0.425672968   
3.710485853   9.6998924   -0.470324811   
3.017488724   8.83586062   -0.513350243   
1.666483136   5.526182667   -0.37254968   
3.107572258   7.303509537   -0.575764785   
2.626485535   6.856431772   -0.603000275   
2.21504325   6.473932278   -0.626438658   
1.827270875   6.051724066   -0.641118752   
2.384925781   5.59455094   -0.665622961   
2.043077208   5.324264261   -0.678301937   
1.745614014   5.096988245   -0.692941967   
1.485828853   4.915323672   -0.711168233   
1.915464672   4.486993583   -0.715993058   
1.6678788   4.339022714   -0.726695388   
1.436687692   4.187804921   -0.735093345   
1.224615016   4.049661742   -0.74577104   
1.597174556   3.734174189   -0.749584882   
1.393851448   3.619342924   -0.753615554   
1.209203989   3.517110652   -0.759851779   
1.035907395   3.426274568   -0.768413155   
1.361173646   3.172295425   -0.770789433   
1.198640976   3.105498558   -0.775798055   
1.042791512   3.032047874   -0.780558612   
0.90241363   2.981361337   -0.79178912   
1.187285928   2.757869749   -0.790905888   
1.045836594   2.703283243   -0.792786766   
0.900746408   2.61680601   -0.786200474   
0.781114959   2.58224448   -0.796769467   
4.409701367   11.44521648   0.338317127   
3.946082946   11.47127239   0.219160499   
1.613329579   5.30907282   0.04813301   
4.933028063   11.52569033   0.008533664   
4.348851735   11.28024032   -0.108457845   
5.090064483   14.77837953   -0.285382447   
1.625614864   5.337777767   -0.155663816   
4.664650241   10.88603554   -0.425996473   
3.739148082   9.685667317   -0.470189092   
3.054675849   8.855823324   -0.515052075   
1.69041457   5.543953184   -0.374095556   
3.130357852   7.294857911   -0.575837145   
2.647148948   6.84741166   -0.602918437   
2.236846223   6.472753308   -0.62698565   
1.85163868   6.065120306   -0.643136727   
2.403256378   5.589947349   -0.665949356   
2.059402346   5.317971301   -0.678301938   
1.761243139   5.09160882   -0.692941967   
1.502638963   4.916426126   -0.711991315   
1.932351448   4.488366035   -0.717154635   
1.681182915   4.3338855   -0.726695389   
1.455665539   4.201087852   -0.738205363   
1.236745474   4.044943679   -0.74559747   
1.607844253   3.727450577   -0.749221889   
1.403170844   3.610474624   -0.752661877   
1.222238347   3.519863099   -0.761252965   
1.051844824   3.440845741   -0.772401123   
1.368186604   3.161834682   -0.769263972   
1.214525447   3.118141321   -0.779883596   
1.045393723   3.009559914   -0.7755914   
0.912690569   2.982285851   -0.792774507   
1.196511586   2.755988079   -0.791415327   
1.053774529   2.699163238   -0.792522954   
0.915403797   2.633110744   -0.791939207   
0.791277482   2.587172758   -0.799035456   
4.43356435   11.40275138   0.337462366   
3.971413973   11.43077809   0.218618618   
1.641063292   5.341376635   0.048471304   
4.379088014   11.25566248   -0.108350191   
5.457634949   15.68908015   -0.303290723   
1.663750895   5.403460883   -0.157727433   
4.709522556   10.89827654   -0.427038928   
3.767757655   9.671357718   -0.470053372   
3.084130083   8.853009806   -0.515436346   
1.711824894   5.553045184   -0.375061688   
3.154703974   7.289796256   -0.576198885   
2.669230743   6.842043526   -0.60316395   
2.258662537   6.471501754   -0.627532701   
1.878453189   6.086029028   -0.645961927   
2.421581093   5.585284012   -0.666275751   
2.079683597   5.321801947   -0.67960114   
1.776855673   5.086181129   -0.692941966   
1.516253119   4.90706096   -0.711305385   
1.950840941   4.493306992   -0.718897115   
1.694471083   4.328707148   -0.726695388   
1.47017671   4.201257649   -0.739024329   
1.250894318   4.046775827   -0.746639061   
1.619272428   3.722500169   -0.749221889   
1.421409026   3.624430235   -0.756476693   
1.23886744   3.532738913   -0.764856066   
1.062973628   3.439470655   -0.77282086   
1.374757841   3.150466114   -0.767520596   
1.224086013   3.114400522   -0.779883595   
1.068451986   3.045762843   -0.785762335   
0.921549317   2.978545823   -0.79252816   
1.202246394   2.746103469   -0.789632313   
1.064878811   2.703097321   -0.794633499   
0.927301698   2.641181306   -0.795218417   
0.804593907   2.60214166   -0.8044171   
4.451732027   11.34629052   0.336194009   
4.026326062   11.47514687   0.219702395   
1.683840798   5.421308296   0.049243307   
4.435889885   11.29895323   -0.108897414   
5.526619994   15.73169148   -0.304440794   
1.680320714   5.398331214   -0.157727433   
4.737745713   10.87186736   -0.426571628   
3.795949312   9.656033772   -0.469872412   
3.107299597   8.832203689   -0.514777596   
1.732416192   5.559200258   -0.375834611   
3.172665806   7.270028328   -0.575403044   
2.689114114   6.831040012   -0.602918437   
2.279499408   6.467359513   -0.627806227   
1.904228012   6.103031411   -0.648383545   
2.438704982   5.577828649   -0.666275751   
2.099643489   5.324633972   -0.680782264   
1.795421247   5.089123728   -0.69409007   
1.533368028   4.90900437   -0.712265675   
1.96422014   4.486394577   -0.718751861   
1.71209898   4.334515469   -0.728548854   
1.485031194   4.202308521   -0.740007092   
1.263891287   4.044798899   -0.7469862   
1.62594483   3.706707994   -0.747043934   
1.430354755   3.614575795   -0.755332226   
1.25002695   3.529844883   -0.765056276   
1.067398035   3.416595346   -0.768413156   
1.389526935   3.157846617   -0.770353604   
1.236148331   3.11696765   -0.781472418   
1.073573519   3.030564498   -0.782687392   
0.933576039   2.984954436   -0.794991738   
1.204417033   2.728247869   -0.785556787   
1.075660889   2.706092113   -0.796480288   
0.929292925   2.621097822   -0.790026315   
0.811715066   2.59691494   -0.803567377   
4.497191523   11.35953311   0.336993635   
4.067189087   11.47876171   0.220009478   
1.718137817   5.472405531   0.049755083   
4.481582435   11.31318112   -0.109166544   
5.57184995   15.70618127   -0.304276494   
1.705574996   5.42080318   -0.158536149   
4.772686156   10.86094048   -0.426715394   
3.831080896   9.658271143   -0.470551011   
3.135050312   8.824510972   -0.514887388   
1.752461575   5.563377326   -0.376478728   
3.195758492   7.262086298   -0.575547764   
2.707851212   6.817200623   -0.602427296   
2.299997957   6.462211993   -0.627988558   
1.925935239   6.106648885   -0.649392533   
2.457009121   5.573049153   -0.666602146   
2.115969444   5.318167546   -0.680782265   
1.810693177   5.082657267   -0.693962516   
1.548719653   4.905221347   -0.712402884   
1.975577388   4.474916299   -0.717880677   
1.727949497   4.335666867   -0.729629964   
1.496258959   4.193087251   -0.739188125   
1.277184436   4.04371975   -0.747507025   
1.637309267   3.701702194   -0.747043934   
1.444713335   3.618375445   -0.757048899   
1.256891813   3.514922747   -0.76265421   
1.084941117   3.435680642   -0.773450581   
1.400000163   3.155352845   -0.770789433   
1.235212812   3.086938754   -0.774890158   
1.087447615   3.040064511   -0.785998848   
0.934841669   2.957125539   -0.7883401   
1.214747852   2.728957031   -0.78683036   
1.078931372   2.690245476   -0.792786765   
0.942517518   2.632724812   -0.794398614   
0.82141197   2.599899456   -0.805266827   
4.544628497   11.37724403   0.337931097   
4.095650048   11.44740188   0.219648214   
1.759115749   5.543358657   0.050449016   
4.521465249   11.31237756   -0.109292131   
5.628101522   15.71160387   -0.304714618   
1.708565575   5.37267789   -0.157281247   
4.803555454   10.84076424   -0.426499715   
3.859951652   9.644616843   -0.470460531   
3.154354562   8.793234265   -0.513624723   
1.775576419   5.576992347   -0.377766934   
3.216405094   7.248600895   -0.575258383   
2.726528979   6.803310093   -0.601936213   
2.320149835   6.456062533   -0.628079694   
1.948286973   6.112086357   -0.650603341   
2.474095506   5.565484783   -0.666602145   
2.128946131   5.30335682   -0.679719275   
1.833663754   5.097610695   -0.696768943   
1.563761399   4.900446882   -0.712402884   
1.989699426   4.469738317   -0.718025875   
1.744928967   4.339511783   -0.731174498   
1.5084473   4.186620552   -0.738860536   
1.297071467   4.063236526   -0.751846956   
1.648658177   3.696661661   -0.747043934   
1.456174332   3.614836667   -0.757239634   
1.269998582   3.517500883   -0.764055396   
1.096368348   3.435130382   -0.774080246   
1.41206528   3.15638821   -0.772096979   
1.243583876   3.080425406   -0.774209235   
1.073335413   2.971830869   -0.769205059   
0.955413477   2.990248227   -0.797948008   
1.222322521   2.723453056   -0.78632092   
1.084647237   2.680663829   -0.790939978   
0.948955209   2.625297714   -0.793032297   
0.82354992   2.579095143   -0.799601941   
4.56606073   11.32987085   0.336938472   
4.051261255   11.21473799   0.215421425   
1.769395805   5.516987329   0.050258184   
4.55839363   11.30401743   -0.109345961   
5.678318236   15.69990457   -0.304824171   
1.72014692   5.352183799   -0.156835061   
4.836791871   10.8259766   -0.426499715   
3.888400697   9.629951049   -0.470324811   
3.185397356   8.794781492   -0.514283533   
1.838220899   5.713062876   -0.387364086   
3.241072243   7.244161425   -0.575692483   
2.744773115   6.788445258   -0.601363233   
2.341983759   6.454530657   -0.628626745   
1.972825667   6.124072618   -0.652520406   
2.487092636   5.548797413   -0.665514182   
2.142970006   5.291278239   -0.679010635   
1.852341484   5.100351258   -0.697917047   
1.581524524   4.904110905   -0.713637535   
2.007049265   4.471736581   -0.719332705   
1.754148672   4.324067069   -0.729475527   
1.515888844   4.167140368   -0.7362399   
1.305600539   4.047053827   -0.749590148   
1.658781703   3.688895603   -0.746499446   
1.467257712   3.610352176   -0.757239634   
1.274744245   3.497018806   -0.760452296   
1.105101268   3.42616741   -0.77282086   
1.418933311   3.145813611   -0.770571518   
1.267722553   3.112673995   -0.783288212   
1.094763536   3.002298564   -0.777956749   
0.952075239   2.94856672   -0.787601058   
1.227084169   2.711760982   -0.784028463   
1.095782618   2.684467793   -0.793050577   
0.96557914   2.645868672   -0.800137292   
0.830869533   2.574730844   -0.799035456   
4.593645167   11.29821458   0.336414606   
4.182599361   11.46808216   0.220533313   
1.79124627   5.526753018   0.050396973   
4.602473184   11.31313565   -0.109570231   
5.711368343   15.64108556   -0.304020939   
4.872855554   10.81746447   -0.426751365   
3.916795909   9.615200732   -0.470189091   
3.208592366   8.774652074   -0.513679619   
1.864688175   5.734917941   -0.389231977   
3.266972829   7.24236635   -0.576343605   
2.763328436   6.774455771   -0.600872092   
2.361432542   6.446380172   -0.62853555   
1.988833106   6.109477021   -0.651612329   
2.495098325   5.521211783   -0.663120638   
2.156939807   5.279163289   -0.678301937   
1.868321867   5.095575798   -0.698044602   
1.599324916   4.907712363   -0.714872245   
2.026877328   4.479079076   -0.721510719   
1.766658121   4.316836215   -0.729166655   
1.533087307   4.174507905   -0.738369155   
1.31373725   4.02992116   -0.747159829   
1.671309416   3.686476156   -0.747043935   
1.474603452   3.596751126   -0.755332227   
1.275315906   3.465507118   -0.754447128   
1.121667144   3.441352783   -0.777018696   
1.429789935   3.14411087   -0.771225263   
1.261721349   3.070935181   -0.773755285   
1.114710244   3.028103603   -0.785525824   
0.968632564   2.968666488   -0.79375995   
1.235799355   2.708863269   -0.784283154   
1.102911417   2.678417507   -0.792259086   
0.966708593   2.623938741   -0.794398616   
0.842332743   2.583111304   -0.802434412   
4.768640527   11.62626173   0.346616507   
4.228127285   11.48334381   0.221075209   
1.799790671   5.495573091   0.050162768   
4.633742566   11.29063611   -0.109489497   
5.793218445   15.7154256   -0.305809942   
1.822150576   5.552378633   -0.163025913   
4.914285184   10.82066189   -0.427470286   
3.942479403   9.593899025   -0.469736692   
3.242412988   8.783501373   -0.514777596   
1.881650973   5.727274339   -0.389103171   
3.286699429   7.22686206   -0.575909505   
2.787891721   6.775162754   -0.601690642   
2.3784354   6.431633012   -0.627806227   
2.004147662   6.092950615   -0.65050243   
2.509964617   5.509008288   -0.662576628   
2.171990655   5.269767129   -0.677947647   
1.878093234   5.074006974   -0.695876005   
1.613134846   4.899018952   -0.714323466   
2.028700118   4.446735688   -0.71729989   
1.778762555   4.308656312   -0.728703289   
1.54142936   4.157760231   -0.736239898   
1.326402789   4.026806922   -0.747333398   
1.688743519   3.694747234   -0.749766378   
1.491258531   3.60581686   -0.758193367   
1.30470737   3.512092163   -0.765456583   
1.123044629   3.41003545   -0.770721942   
1.438615687   3.137935219   -0.770789433   
1.264052209   3.049955789   -0.769442828   
1.120272198   3.014650973   -0.782923962   
0.972880455   2.95095342   -0.789818233   
1.243296081   2.703302228   -0.783773715   
1.107053468   2.665222599   -0.789357055   
0.979783882   2.634484603   -0.798497687   
0.846952269   2.57049529   -0.7993187   
4.814223299   11.63559317   0.347333402   
4.278664872   11.51155483   0.221869977   
3.748258205   11.32750981   0.10350029   
4.704697252   11.36413854   -0.110341724   
5.840359111   15.69476765   -0.305755166   
1.837917956   5.542966925   -0.162914363   
4.949955683   10.81098599   -0.427685936   
3.974189697   9.587294746   -0.470008131   
3.27073997   8.77725438   -0.514997179   
1.908959074   5.750834868   -0.391099897   
3.312596649   7.224904086   -0.576560685   
2.80560792   6.759213687   -0.601035825   
2.403380226   6.43830002   -0.629173796   
2.022517508   6.08582925   -0.65040152   
2.527683928   5.503088402   -0.662794243   
2.186623127   5.259410965   -0.67747522   
1.890179778   5.058930169   -0.694600346   
1.627219159   4.891227138   -0.713911896   
2.035718147   4.426108508   -0.714976621   
1.791972947   4.303178983   -0.728703289   
1.558672778   4.165022613   -0.738369156   
1.340305445   4.027390921   -0.74820142   
1.698424709   3.685976221   -0.749040392   
1.49815674   3.591259217   -0.756095224   
1.31444409   3.505320665   -0.764856066   
1.128870846   3.39265833   -0.767573566   
1.454787213   3.147681698   -0.774276186   
1.275281607   3.050555983   -0.770577699   
1.122690845   2.993005182   -0.778193261   
0.975803767   2.929564759   -0.784891136   
1.255244645   2.707370728   -0.786066226   
1.112615942   2.655586154   -0.787510323   
0.981776282   2.615255879   -0.793578811   
0.854531529   2.5669748   -0.799035458   
4.85798318   11.64014039   0.347912431   
4.310449424   11.48901263   0.221689345   
3.812795141   11.40510389   0.104315659   
4.850514485   11.61539955   -0.112925339   
5.894811129   15.6936232   -0.306083766   
4.371846116   13.05085764   -0.383972598   
4.990638809   10.81208217   -0.428332975   
4.003584773   9.575057461   -0.470008132   
3.296949581   8.765309546   -0.514887387   
2.730609776   8.142464954   -0.554315802   
3.334746753   7.214707171   -0.576560685   
2.83864854   6.77999287   -0.603655092   
2.424525636   6.434623838   -0.629538458   
2.041495766   6.080538841   -0.650502431   
2.547061543   5.500719846   -0.663447033   
2.200828418   5.248099083   -0.676884658   
1.903591583   5.047539197   -0.693834904   
1.641270893   4.883395166   -0.713500384   
2.051784748   4.425227946   -0.715847861   
1.804401261   4.295838986   -0.728394358   
1.574580828   4.168526915   -0.739843298   
1.358931842   4.041928975   -0.751673329   
1.711382232   3.684315635   -0.749766377   
1.499649579   3.564025898   -0.751326675   
1.326579424   3.504936744   -0.765656793   
1.139897165   3.391032453   -0.76799336   
1.459079152   3.131702874   -0.771443177   
1.290688757   3.060987439   -0.774209235   
1.129459684   2.983185998   -0.776537562   
0.982623155   2.920127172   -0.783166595   
1.263544909   2.703507087   -0.786066228   
1.12075792   2.652160336   -0.787510324   
0.973094086   2.568154672   -0.780188511   
0.863014286   2.566159024   -0.79960194   
4.891732886   11.62057525   0.347774566   
4.352758743   11.49443538   0.222050609   
3.855126453   11.41514197   0.104515163   
4.843041515   11.49817163   -0.111929569   
5.952500419   15.70070647   -0.306576637   
4.411224145   13.03549005   -0.383916837   
5.020413442   10.78947129   -0.428045412   
4.035658794   9.569172946   -0.470324811   
3.323117009   8.753286878   -0.514777596   
2.74533158   8.103804721   -0.552254674   
3.355601879   7.201730144   -0.576343605   
2.859435703   6.771251885   -0.603655091   
2.444963431   6.429016829   -0.629720789   
2.061738569   6.07895765   -0.651006924   
2.566448101   5.498284372   -0.664099823   
2.214211228   5.234920246   -0.676057881   
1.919773836   5.043529541   -0.694090072   
1.654016064   4.871771279   -0.712540094   
2.054459248   4.395607769   -0.712072564   
1.816030698   4.286643949   -0.727776556   
1.58701084   4.162754701   -0.739679504   
1.370692475   4.035876131   -0.751326134   
1.721009515   3.67548563   -0.749040393   
1.512877682   3.564829973   -0.752471142   
1.336277187   3.498104653   -0.765056276   
1.149980866   3.38659359   -0.767783491   
1.462456986   3.113960998   -0.768174398   
1.30617201   3.071352694   -0.777840826   
1.144849391   2.996044086   -0.780795125   
0.994696528   2.926274877   -0.785630173   
1.26482695   2.68474638   -0.781735952   
1.134184017   2.661132111   -0.791203788   
0.981312078   2.566055764   -0.780461799   
