X     Y     Z
3.23576935   -0.407184222   -0.828988915   
3.090076057   -0.748956144   -0.837519642   
2.984206375   -0.606184307   -0.832887759   
2.853360267   -0.468601279   -0.821452449   
2.821386991   -0.354538774   -0.839822795   
7.983311506   -1.023973656   -0.816281186   
7.282304506   -1.761249302   -0.820006561   
6.697586131   -1.362772418   -0.812946624   
6.209401338   -1.02941764   -0.80953789   
5.77389898   -0.742428812   -0.806237583   
5.39241789   -1.307063404   -0.814295064   
5.076446655   -1.035960853   -0.809944897   
4.800436341   -0.798417006   -0.807980289   
4.558547626   -0.586639862   -0.810175406   
4.27515195   -1.039410789   -0.812020031   
4.063155813   -0.831836133   -0.805878456   
3.934122078   -0.657011808   -0.814898993   
3.774205673   -0.485501918   -0.816898135   
3.560016083   -0.869885448   -0.818296362   
3.455258742   -0.7100857   -0.82210085   
3.312961856   -0.55363254   -0.817694273   
3.229698834   -0.41648974   -0.827757126   
3.091520028   -0.759355525   -0.838538522   
2.965328493   -0.611828455   -0.828138996   
2.867089054   -0.479893835   -0.825824806   
2.812676515   -0.362213057   -0.837556807   
7.979145673   -1.048331722   -0.816180275   
6.684621654   -1.381505177   -0.811883635   
6.210125654   -1.049123849   -0.810048107   
5.777486404   -0.760915441   -0.807060664   
5.386460934   -1.32312893   -0.814004671   
5.072277233   -1.051329807   -0.809790462   
4.792128237   -0.812151741   -0.806997527   
4.552821173   -0.60010772   -0.809481014   
4.279581591   -1.054403927   -0.813472   
4.084611785   -0.849293638   -0.810646948   
3.910838684   -0.66546266   -0.810495224   
3.766882562   -0.496312437   -0.815638752   
3.561120189   -0.881741641   -0.81916808   
3.440670203   -0.718096266   -0.81915018   
3.316994695   -0.564772459   -0.819113459   
3.232249222   -0.42690396   -0.828742512   
3.076976736   -0.765800466   -0.835227185   
2.966269535   -0.621516515   -0.828930426   
2.868447879   -0.489172839   -0.826644608   
2.819158462   -0.371843827   -0.839822795   
7.973919794   -1.072541199   -0.815978454   
6.705619369   -1.407309716   -0.814954466   
6.213720004   -1.069348852   -0.810941103   
5.779051517   -0.779166339   -0.807609443   
5.380456222   -1.339170232   -0.813714277   
5.068061017   -1.066682949   -0.809635967   
4.785725518   -0.826178712   -0.806342353   
4.541199053   -0.612755838   -0.80774503   
4.279188894   -1.068243094   -0.814016489   
4.092551736   -0.86405163   -0.812745146   
3.917466744   -0.678963683   -0.812296772   
3.760497329   -0.507213257   -0.814589292   
3.565024666   -0.894325161   -0.820693541   
3.444167537   -0.729860119   -0.820512029   
3.319075762   -0.575610351   -0.820059623   
3.223240765   -0.435779546   -0.826771684   
3.067111587   -0.773345502   -0.833189422   
2.97850079   -0.633624567   -0.832887759   
2.861247146   -0.496983116   -0.825004945   
2.813252329   -0.379849476   -0.838406589   
7.97157731   -1.097135432   -0.816079364   
6.713895488   -1.430565846   -0.816489881   
6.21236378   -1.088749642   -0.811196211   
5.775652711   -0.796757241   -0.807472234   
5.380159652   -1.356638567   -0.814295064   
5.067663247   -1.082845814   -0.810099334   
4.778310414   -0.840003205   -0.805523444   
4.537346466   -0.626415809   -0.807397832   
4.274938025   -1.081125347   -0.813834992   
4.080283253   -0.874546091   -0.810837738   
3.916330394   -0.691149355   -0.812496927   
3.759892015   -0.51888161   -0.814799218   
3.566993568   -0.906460135   -0.821783115   
3.453337478   -0.742881079   -0.823235721   
3.319207917   -0.586128343   -0.820532705   
3.228608874   -0.446595834   -0.828496166   
3.072219973   -0.784666049   -0.835227185   
2.970885747   -0.641537926   -0.831304837   
2.874864793   -0.508439346   -0.829377303   
2.79782343   -0.386509998   -0.834157911   
7.973100506   -1.122280128   -0.81658386   
6.715298416   -1.452416555   -0.81719858   
6.224616914   -1.110591127   -0.813237312   
5.77514254   -0.814749653   -0.807746594   
5.375972491   -1.373138312   -0.814295065   
5.037281891   -1.092524459   -0.805774718   
4.780565987   -0.855527804   -0.806342352   
4.530527422   -0.639644851   -0.806529868   
4.260169473   -1.091307138   -0.811657038   
4.079499317   -0.887477423   -0.811219208   
3.931549016   -0.706279492   -0.816100025   
3.759250636   -0.530550988   -0.815009087   
3.569866697   -0.918858958   -0.823090661   
3.420594539   -0.746824602   -0.815972538   
3.301136971   -0.593386498   -0.816511598   
3.225304194   -0.456227487   -0.828003472   
3.049201773   -0.78875999   -0.829623335   
2.974556862   -0.65188839   -0.832887759   
2.877078309   -0.517938633   -0.830470393   
2.789027486   -0.394018522   -0.831891922   
7.978482706   -1.148011172   -0.817491995   
6.711780801   -1.473224837   -0.817316657   
6.224107926   -1.130214372   -0.813619974   
5.767713892   -0.831756816   -0.807060664   
5.398554891   -1.396563271   -0.818360758   
5.049344696   -1.111371546   -0.808245927   
4.799270475   -0.874079075   -0.809945751   
4.523670177   -0.652837967   -0.805661905   
4.252042224   -1.103137338   -0.810749559   
4.07196472   -0.898930913   -0.810265476   
3.928400276   -0.718161784   -0.815899875   
3.747928042   -0.540685679   -0.812910168   
3.569864162   -0.930545317   -0.823744406   
3.43825487   -0.76173913   -0.820739002   
3.304079682   -0.604385621   -0.817694272   
3.213338168   -0.46459491   -0.825293548   
3.034606792   -0.794925479   -0.826311999   
2.966893459   -0.659754826   -0.831304838   
2.836681802   -0.519656237   -0.819266269   
2.784957863   -0.402162084   -0.831042197   
7.976891123   -1.172772883   -0.817693757   
6.69753715   -1.491650664   -0.816135591   
6.21866076   -1.148944036   -0.813364867   
5.765135109   -0.849447966   -0.807060665   
5.380845427   -1.409609025   -0.816327883   
5.06230341   -1.130518152   -0.810871629   
4.799476481   -0.889338154   -0.810437133   
4.529440478   -0.667862576   -0.807050636   
4.252442168   -1.117176716   -0.811475543   
4.074935247   -0.91270666   -0.811409945   
3.92714165   -0.730389729   -0.816100027   
3.748186327   -0.552466731   -0.813329965   
3.570767045   -0.942489452   -0.824616122   
3.444453616   -0.774206113   -0.822781773   
3.300299622   -0.614163994   -0.817221192   
3.210938849   -0.474309474   -0.825047201   
3.05178217   -0.809437985   -0.831661098   
2.947918661   -0.665033222   -0.826556016   
2.866280841   -0.534172397   -0.828284213   
2.792249986   -0.411964133   -0.833591427   
7.975223681   -1.197535636   -0.817895578   
6.683243369   -1.510003004   -0.814954466   
6.214131928   -1.167833936   -0.813237313   
5.764460766   -0.867425955   -0.807335083   
5.373626302   -1.42534962   -0.815892291   
5.054956899   -1.14517063   -0.810253769   
4.791878034   -0.90314498   -0.809618222   
4.548794386   -0.684981773   -0.810869801   
4.252796246   -1.131228849   -0.812201528   
4.080730956   -0.927161487   -0.813126617   
3.921994346   -0.74188825   -0.815499511   
3.742606392   -0.56338127   -0.812490375   
3.539572488   -0.945880974   -0.818078449   
3.434465797   -0.78303799   -0.820965976   
3.303173268   -0.625189782   -0.818403868   
3.19221851   -0.481556039   -0.820612794   
3.037143575   -0.815536757   -0.828349763   
2.945864566   -0.674074166   -0.826556017   
2.859903137   -0.54206786   -0.826917896   
2.790024586   -0.420385814   -0.833308129   
7.973478473   -1.222299074   -0.81809734   
6.688258092   -1.532717879   -0.816135591   
6.202726097   -1.185403729   -0.812216762   
5.769604743   -0.886310203   -0.808432524   
5.379738986   -1.444651476   -0.817489516   
5.062011753   -1.163107395   -0.81195274   
4.785209356   -0.91709923   -0.808963049   
4.554458719   -0.700131126   -0.812258532   
4.239809764   -1.141713877   -0.810386565   
4.078823758   -0.939897028   -0.813317351   
3.925472479   -0.755027585   -0.816700544   
3.734095512   -0.573821205   -0.811021177   
3.540422245   -0.957755186   -0.818950165   
3.438689306   -0.79510694   -0.822554797   
3.321276056   -0.639176806   -0.823371079   
3.200305162   -0.492822428   -0.823076317   
3.02809507   -0.823075271   -0.826566691   
2.939084674   -0.682018627   -0.825236907   
2.844058212   -0.548108801   -0.822818825   
2.803888059   -0.431276313   -0.837840105   
6.710606735   -1.559523736   -0.819442636   
6.203928263   -1.205373706   -0.812854591   
5.775666107   -0.905387546   -0.809667234   
5.374326912   -1.460890014   -0.817344319   
5.055532944   -1.177959337   -0.811489432   
4.776563648   -0.930643781   -0.807980289   
4.556180984   -0.714711169   -0.812952926   
4.23818479   -1.155233265   -0.810749558   
4.071141505   -0.951289451   -0.812363618   
3.925060502   -0.767443222   -0.817100906   
3.74584037   -0.587395123   -0.813959627   
3.558176254   -0.974283032   -0.823744407   
3.437182092   -0.805875215   -0.822781773   
3.28878586   -0.643393875   -0.815802005   
3.228458476   -0.507302311   -0.830713398   
3.041406062   -0.836722014   -0.830896967   
2.950123367   -0.694125231   -0.828930426   
2.85085914   -0.558496069   -0.825278232   
2.794024736   -0.438538109   -0.835290875   
6.714489318   -1.582154005   -0.820505625   
6.211877618   -1.226707231   -0.814385417   
5.785576451   -0.925136072   -0.811450605   
5.368865641   -1.477108891   -0.817199122   
5.04804889   -1.192555294   -0.810871629   
4.787233598   -0.947976471   -0.810273338   
4.554939172   -0.728841589   -0.813126553   
4.240308619   -1.169799554   -0.811838536   
4.060562386   -0.961964729   -0.810837739   
3.931336569   -0.781200171   -0.818902458   
3.786500566   -0.605679394   -0.823194889   
3.557992025   -0.985976594   -0.824398209   
3.419533375   -0.812813069   -0.81915018   
3.287749429   -0.653670197   -0.816038574   
3.210618382   -0.514597185   -0.826525337   
3.009014005   -0.837749321   -0.822745913   
2.933906182   -0.699815827   -0.824973095   
2.855736171   -0.56855458   -0.827191124   
2.79171919   -0.446956385   -0.835007634   
6.71443316   -1.603899946   -0.821096188   
6.214891652   -1.247125256   -0.815278354   
5.789554414   -0.943997427   -0.812410896   
5.372887146   -1.495961832   -0.818505954   
5.046288239   -1.208497089   -0.811180501   
4.793973868   -0.964605025   -0.811911273   
4.557541564   -0.743605411   -0.813994516   
4.253748657   -1.187562927   -0.815105524   
4.060455483   -0.975105571   -0.811409944   
3.921237976   -0.791706431   -0.817301058   
3.76146517   -0.613515961   -0.818157463   
3.549311887   -0.995306715   -0.823090661   
3.399981267   -0.819193999   -0.815064641   
3.283823756   -0.663368981   -0.815565492   
3.226241449   -0.527258541   -0.830959745   
3.010152784   -0.84802579   -0.823764794   
2.951434179   -0.713573867   -0.830513348   
2.858692642   -0.578266758   -0.8285575   
2.784655669   -0.454592057   -0.833308128   
6.715271481   -1.62589393   -0.821804828   
6.212980377   -1.266582616   -0.815533522   
5.787608103   -0.961917492   -0.812548105   
5.373986032   -1.51404839   -0.819377136   
5.054078562   -1.226769751   -0.813033909   
4.796791134   -0.980493565   -0.812894035   
4.558153102   -0.758068987   -0.814515282   
4.272797636   -1.207023737   -0.819461432   
4.079381928   -0.992897631   -0.815796964   
3.907273587   -0.801370696   -0.814898994   
3.769210116   -0.626656612   -0.820256381   
3.540608278   -1.00459275   -0.821783115   
3.42772726   -0.837014037   -0.822327824   
3.299857208   -0.677151432   -0.820059623   
3.199752323   -0.533013489   -0.82455445   
3.038226069   -0.866004324   -0.83217054   
2.952041741   -0.723313986   -0.831304838   
2.840886809   -0.583742982   -0.823911913   
2.795546404   -0.465179599   -0.836990324   
6.714109403   -1.647435009   -0.822277255   
6.205180105   -1.284833378   -0.815023246   
5.780723138   -0.979007551   -0.811999384   
5.366461232   -1.529714784   -0.818941545   
5.063722278   -1.245573577   -0.815196244   
4.797624213   -0.996007353   -0.813549152   
4.554834967   -0.77188507   -0.814341713   
4.271911388   -1.220937525   -0.820005922   
4.072504247   -1.00446801   -0.815034024   
3.899041185   -0.812155503   -0.813697958   
3.755701883   -0.636257689   -0.817737668   
3.531880962   -1.013834696   -0.820475625   
3.404344532   -0.842379772   -0.817334385   
3.300617719   -0.687866782   -0.820769217   
3.198102041   -0.542827679   -0.824554451   
3.009538449   -0.867819406   -0.825038367   
2.947000344   -0.731670048   -0.83051335   
2.853207445   -0.595403464   -0.828010928   
2.79505184   -0.473914346   -0.837273568   
6.709023363   -1.668025847   -0.822277254   
6.193444436   -1.30223196   -0.814002696   
5.773788053   -0.996064349   -0.811450605   
5.362693821   -1.546445745   -0.819086743   
5.062753429   -1.261819865   -0.815659612   
4.798406682   -1.011535487   -0.814204324   
4.564090967   -0.787865749   -0.816424894   
4.265311107   -1.233218402   -0.819461432   
4.071308472   -1.017433588   -0.815415496   
3.919536713   -0.828979381   -0.818502093   
3.755659224   -0.648109606   -0.818157464   
3.523130651   -1.023032676   -0.81916808   
3.397965482   -0.851872864   -0.816426487   
3.327009092   -0.704024198   -0.827865209   
3.210746779   -0.555113485   -0.828249819   
3.000363603   -0.875153006   -0.823255353   
2.949418719   -0.741884371   -0.831832458   
2.858895654   -0.605749341   -0.830197106   
2.79641971   -0.482976903   -0.838123347   
6.696171006   -1.686660679   -0.821332401   
6.194270028   -1.322262256   -0.814640526   
5.764851154   -1.012745039   -0.810627523   
5.357924011   -1.562890987   -0.819086742   
5.055984256   -1.276620599   -0.815196244   
4.796245568   -1.026458564   -0.814368118   
4.550012881   -0.799818462   -0.814341712   
4.260563718   -1.246022399   -0.819279936   
4.02819958   -1.019800841   -0.807404392   
3.896858375   -0.836681349   -0.814298475   
3.754616091   -0.659797966   -0.818367389   
3.502183455   -1.028611127   -0.815027582   
3.367961916   -0.855341631   -0.809844228   
3.311534075   -0.711371079   -0.824553753   
3.211892268   -0.565465416   -0.828988917   
3.008794418   -0.887637364   -0.826311998   
2.914414088   -0.742593819   -0.822598685   
2.843857795   -0.611685535   -0.826371322   
2.801536613   -0.492716743   -0.840106036   
6.680380784   -1.704495723   -0.820033198   
6.220233462   -1.347770748   -0.818595114   
5.750991335   -1.028508418   -0.809118454   
5.357848573   -1.580721356   -0.819812785   
5.050129579   -1.291636492   -0.814887373   
4.781505896   -1.038655501   -0.812402655   
4.544629383   -0.813253544   -0.813820945   
4.248234043   -1.256577427   -0.817646471   
4.036462651   -1.035080469   -0.809693272   
3.905760882   -0.851136103   -0.816700544   
3.749686901   -0.670797298   -0.817737668   
3.511173654   -1.042963535   -0.817860533   
3.398333704   -0.874162091   -0.817788334   
3.307437494   -0.721113404   -0.824080672   
3.220636074   -0.577197426   -0.831698784   
2.986597384   -0.891058209   -0.82096284   
2.926131757   -0.755147103   -0.826556017   
2.821292006   -0.615893954   -0.820359358   
2.793403546   -0.500126275   -0.838123346   
6.671274317   -1.723989074   -0.819560713   
6.207351293   -1.364930834   -0.81744701   
5.747808799   -1.046147325   -0.809118454   
5.353922106   -1.597434417   -0.819957983   
5.038491741   -1.305141991   -0.81365171   
4.785039987   -1.054806544   -0.81354915   
4.539206721   -0.826663125   -0.813300123   
4.240590148   -1.268477531   -0.816920485   
4.048469761   -1.051407335   -0.812745146   
3.903131006   -0.863114812   -0.816700542   
3.743763674   -0.681597553   -0.816898136   
3.498610228   -1.050923022   -0.815681327   
3.417312084   -0.89023071   -0.823008747   
3.266313466   -0.722651616   -0.814382817   
3.245546722   -0.591944546   -0.838596769   
2.979220566   -0.898820213   -0.819689266   
2.927534135   -0.765096363   -0.827611317   
2.81375435   -0.623298426   -0.818719755   
2.775816368   -0.505771449   -0.833308128   
6.66691469   -1.744699547   -0.819678849   
6.197326271   -1.382672484   -0.816681626   
5.753338024   -1.065399739   -0.810353105   
5.344259676   -1.612423628   -0.819231939   
5.044020438   -1.323100544   -0.815196244   
4.775042798   -1.067974678   -0.812402655   
4.54149064   -0.841482423   -0.814168143   
4.241385216   -1.282905148   -0.817827968   
4.061364173   -1.068067149   -0.815987699   
3.900464809   -0.875085418   -0.816700543   
3.743577678   -0.69343619   -0.817317931   
3.504707953   -1.064488121   -0.817860533   
3.422098261   -0.902697886   -0.824824542   
3.264081137   -0.732669127   -0.814382818   
3.228468676   -0.599069843   -0.834655111   
3.006971979   -0.917267041   -0.828095013   
2.924240508   -0.773827529   -0.827347505   
2.803382032   -0.630029658   -0.816260288   
2.794997291   -0.518130914   -0.839539555   
6.655771504   -1.763619018   -0.81897021   
6.228847529   -1.409779999   -0.82140154   
5.773405004   -1.087446082   -0.813645606   
5.338341276   -1.628523205   -0.819086741   
5.043757389   -1.339583642   -0.815814048   
4.765971556   -1.081309649   -0.811419894   
4.54082335   -0.855776324   -0.814515283   
4.241190746   -1.297061847   -0.818553951   
4.05617111   -1.080017114   -0.815606229   
3.894895547   -0.886395489   -0.816100025   
3.752962446   -0.707090397   -0.819836586   
3.529414612   -1.083830388   -0.824398207   
3.407080812   -0.909925746   -0.821873875   
3.266554861   -0.743758271   -0.815565493   
3.224710751   -0.608612359   -0.834162361   
2.995827183   -0.923923101   -0.825802558   
2.904150178   -0.778052635   -0.822334875   
2.80800113   -0.640123964   -0.818173181   
2.78679741   -0.525459515   -0.837556808   
6.658961015   -1.78634603   -0.820033198   
6.211925882   -1.425998292   -0.819743218   
5.771014329   -1.105339788   -0.813782756   
5.336156417   -1.645768193   -0.819522333   
5.044394526   -1.356334009   -0.816586345   
4.762631349   -1.095926424   -0.811419893   
4.538176168   -0.869703315   -0.814515281   
4.233433535   -1.30890558   -0.817827967   
4.053786526   -1.092711662   -0.815796965   
3.898840534   -0.899883107   -0.817501212   
3.749815145   -0.718417001   -0.819626717   
3.526072881   -1.094653409   -0.824398208   
3.413674713   -0.922916003   -0.82414362   
3.267097779   -0.754432275   -0.816275086   
3.221876611   -0.618320059   -0.833916015   
2.980053843   -0.929080383   -0.822236472   
2.921299284   -0.792260737   -0.827875127   
2.839763839   -0.656536188   -0.828010929   
2.780462815   -0.533103856   -0.836140601   
6.659199302   -1.808328353   -0.820741839   
6.190133755   -1.441001798   -0.817447009   
5.777318723   -1.124933082   -0.815154616   
5.325415095   -1.660364528   -0.818651152   
5.045929465   -1.373360464   -0.817513019   
4.762128726   -1.111205248   -0.811911273   
4.536453509   -0.883810516   -0.81468891   
4.237845582   -1.324527701   -0.819461433   
4.045679804   -1.103851365   -0.814843289   
3.895107408   -0.91161705   -0.817301059   
3.73031893   -0.726553347   -0.815848676   
3.506867854   -1.100498306   -0.820693542   
3.420220827   -0.935955256   -0.826413365   
3.275174153   -0.766888707   -0.818876947   
3.218062009   -0.627830602   -0.833423322   
2.98917938   -0.941997109   -0.825547809   
2.918855035   -0.801219458   -0.827875129   
2.837736091   -0.665245352   -0.828010927   
2.778814237   -0.541631673   -0.836140602   
6.661280012   -1.830855349   -0.821686692   
6.204024715   -1.464314987   -0.819870773   
5.766066868   -1.141113924   -0.814057117   
5.319352404   -1.676397507   -0.818505954   
5.064552732   -1.395132056   -0.82121989   
4.758697294   -1.12581002   -0.811911273   
4.525026193   -0.89600235   -0.813126553   
4.230010915   -1.336338039   -0.818735447   
4.045113213   -1.117042072   -0.815415497   
3.872273055   -0.918812652   -0.813097442   
3.730949698   -0.738563962   -0.81647834   
3.521150509   -1.116858466   -0.824834038   
3.419210398   -0.946963784   -0.826867314   
3.273751359   -0.777157605   -0.81911346   
3.215169999   -0.637511998   -0.833176975   
2.997332043   -0.954685121   -0.828604453   
2.923818096   -0.812236032   -0.829985727   
2.849719856   -0.677284699   -0.832109998   
2.782783893   -0.551272625   -0.837840105   
6.673808622   -1.856339228   -0.823930806   
6.192751004   -1.481726207   -0.818977777   
5.762538763   -1.158798622   -0.814057117   
5.312298747   -1.692108566   -0.81821556   
5.057393329   -1.409867333   -0.820756523   
4.76577337   -1.142934841   -0.813712945   
4.513566863   -0.908132464   -0.811564139   
4.231512135   -1.351103881   -0.819824425   
4.052066727   -1.132353167   -0.817513639   
3.876104304   -0.932292156   -0.814498687   
3.72579087   -0.749428469   -0.815848678   
3.521425001   -1.128847639   -0.825705755   
3.401284782   -0.953244241   -0.823235722   
3.271351668   -0.787197641   -0.81911346   
3.195147523   -0.643736055   -0.828496167   
3.033050054   -0.976321044   -0.839302711   
2.933383948   -0.824595744   -0.833415437   
2.814897176   -0.678138955   -0.822545537   
2.77167776   -0.557914955   -0.835007636   
6.676684538   -1.879226746   -0.824993795   
6.188175833   -1.500718348   -0.818977777   
5.758956716   -1.176472392   -0.814057117   
5.30990798   -1.70930802   -0.818651152   
5.032124517   -1.419475553   -0.817358582   
4.763202956   -1.157783682   -0.813876738   
4.505935038   -0.920989551   -0.810696174   
4.236705875   -1.367099547   -0.821639387   
4.065576182   -1.149587234   -0.820946984   
3.873225892   -0.944179466   -0.814498687   
3.734011301   -0.763008714   -0.818157464   
3.505875058   -1.135735789   -0.822872746   
3.421768053   -0.970317087   -0.828910083   
3.296295869   -0.803906503   -0.825972939   
3.184611876   -0.651786664   -0.82627899   
3.0070509   -0.978143549   -0.83293473   
2.934551386   -0.834646861   -0.834470737   
2.800655154   -0.683805648   -0.818992983   
2.769953059   -0.566415725   -0.835007636   
6.682347962   -1.90296532   -0.826411074   
6.188358474   -1.520879905   -0.819615606   
5.759199796   -1.194940017   -0.814605896   
5.310283724   -1.727427   -0.819522333   
5.022045741   -1.433280321   -0.81643185   
4.762502142   -1.173099321   -0.814368118   
4.50405237   -0.935009386   -0.810869801   
4.236231343   -1.381310597   -0.822365371   
4.051648804   -1.159084885   -0.818848842   
3.872213258   -0.956527847   -0.814898993   
3.746012734   -0.777441107   -0.821305841   
3.518142482   -1.15164803   -0.826577415   
3.400988353   -0.975707559   -0.824597567   
3.288154626   -0.812616987   -0.824553753   
3.171210583   -0.659186908   -0.82332272   
3.024246386   -0.9940073   -0.838538522   
2.917145656   -0.839378456   -0.830249539   
2.784537383   -0.68892925   -0.81489397   
2.776653251   -0.576666339   -0.837556807   
6.685066358   -1.925931568   -0.827474064   
6.184625734   -1.540098016   -0.819743219   
5.763260374   -1.214237025   -0.815703337   
5.316238358   -1.747418003   -0.821264756   
5.013827971   -1.447584721   -0.815814048   
4.758880624   -1.187705039   -0.814368118   
4.529108071   -0.954714   -0.815904069   
4.233841721   -1.394916025   -0.822728364   
4.045244865   -1.170691013   -0.818276579   
3.871161436   -0.968878942   -0.815299358   
3.740739709   -0.788325216   -0.820676176   
3.524785253   -1.165807251   -0.828974535   
3.397043754   -0.985865592   -0.824370594   
3.297898969   -0.825769119   -0.82762864   
3.154000702   -0.665710466   -0.819381005   
3.003745616   -0.997490402   -0.833698862   
2.897886103   -0.843472   -0.825500716   
2.782410617   -0.697468879   -0.814893969   
2.772055873   -0.584588541   -0.836707084   
6.69914627   -1.952266339   -0.829954391   
6.179871537   -1.559064934   -0.819743218   
5.763382691   -1.232741463   -0.816252116   
5.310852271   -1.763719678   -0.821264756   
5.012208108   -1.463791011   -0.816277413   
4.764778602   -1.204717579   -0.816006054   
4.530973204   -0.969635092   -0.816772093   
4.226743221   -1.406967034   -0.822183876   
4.041634139   -1.183096108   -0.818276579   
3.87291905   -0.981954811   -0.816300236   
3.734479312   -0.798979717   -0.819836587   
3.533225577   -1.180636625   -0.831807543   
3.386527278   -0.994088521   -0.822554797   
3.290640869   -0.834688582   -0.826446021   
3.151943423   -0.675383695   -0.819381005   
2.988752894   -1.002702474   -0.830387525   
2.908239203   -0.856172304   -0.829194239   
2.785851765   -0.707422423   -0.816533574   
2.758058022   -0.590480287   -0.833024889   
6.68741061   -1.971125412   -0.829245694   
6.160645258   -1.574333609   -0.817829672   
5.774093591   -1.253569819   -0.818309849   
5.320424461   -1.785040262   -0.823588024   
5.012431605   -1.48056084   -0.817049652   
4.762971289   -1.219819531   -0.81633364   
4.528939169   -0.983740366   -0.816945661   
4.227999272   -1.421808576   -0.82327291   
4.035161813   -1.194654133   -0.817704374   
3.877479899   -0.995781798   -0.817901575   
3.756852192   -0.815827784   -0.825293807   
3.532360778   -1.192407284   -0.832461287   
3.370390925   -1.0005932   -0.819377156   
3.292769921   -0.845989054   -0.827628639   
3.156485952   -0.686492314   -0.821105488   
2.981999305   -1.010625559   -0.829368644   
2.912994589   -0.867292573   -0.831304839   
2.798574195   -0.719799769   -0.820905932   
2.774039771   -0.602808487   -0.83840659   
6.68228335   -1.991916314   -0.829363829   
6.167308304   -1.596208968   -0.819360497   
5.780861461   -1.273622899   -0.819818919   
5.320545632   -1.803260186   -0.824459266   
5.021118869   -1.499890725   -0.819211989   
4.764936153   -1.235912461   -0.817316344   
4.517244341   -0.99572246   -0.815383304   
4.206857212   -1.429079584   -0.820005923   
4.037119867   -1.208717497   -0.818848841   
3.882940925   -1.009892612   -0.819703128   
3.74096429   -0.824403977   -0.822355299   
3.502821251   -1.194419314   -0.826359499   
3.376632905   -1.013729049   -0.8216469   
3.283576851   -0.854374484   -0.82597294   
3.160043245   -0.697426282   -0.822583622   
3.023714408   -1.035116189   -0.841849918   
2.901083678   -0.873444644   -0.828666616   
2.807523298   -0.731291964   -0.824185144   
2.758129113   -0.608218423   -0.834157911   
6.687549624   -2.015847105   -0.830781109   
6.150869468   -1.612105023   -0.817829673   
5.77982678   -1.29200067   -0.820230488   
5.315924074   -1.819895424   -0.824604462   
5.019330881   -1.51614529   -0.819675354   
4.761121669   -1.250525276   -0.817316343   
4.52089549   -1.011080982   -0.816598463   
4.214545088   -1.44612846   -0.822365373   
4.036211073   -1.221950845   -0.819421046   
3.877929088   -1.021301531   -0.819302762   
3.744142402   -0.837157261   -0.823614627   
3.496371961   -1.204206739   -0.825705754   
3.376302763   -1.024932316   -0.822327824   
3.264028205   -0.859988463   -0.821715322   
3.182478425   -0.712624008   -0.828988915   
3.00407378   -1.038699862   -0.837264949   
2.879935348   -0.876722738   -0.823390176   
2.812707418   -0.741864502   -0.826371321   
2.758121819   -0.617096153   -0.834724392   
8.693692448   -2.985386958   0.006256796   
6.68323329   -2.036933732   -0.831017322   
6.166984705   -1.636564831   -0.820636156   
5.780666003   -1.310822089   -0.820916419   
5.29441951   -1.830699282   -0.822135997   
5.008041816   -1.529517184   -0.818594188   
4.760122824   -1.265886845   -0.817807723   
4.529297295   -1.027560849   -0.818681645   
4.214734108   -1.460661753   -0.82327291   
4.033381951   -1.234615371   -0.819611782   
3.876670819   -1.033698931   -0.819703125   
3.713904874   -0.842368414   -0.8175278   
3.488052148   -1.213324539   -0.824616123   
3.358245846   -1.030713748   -0.818696232   
3.259496727   -0.86949742   -0.821242297   
3.166100634   -0.719164276   -0.825293548   
2.996308166   -1.046317308   -0.835991318   
2.899357389   -0.892363885   -0.829721917   
2.826217473   -0.75470928   -0.831016908   
2.751539308   -0.624493718   -0.833308127   
8.678824115   -3.010078875   0.006252711   
6.69023841   -2.06152171   -0.832670874   
6.159061075   -1.654705235   -0.820253435   
5.769859842   -1.326996654   -0.819956128   
5.287843654   -1.846607422   -0.821990798   
5.004269516   -1.545165903   -0.818748623   
4.75145397   -1.279202541   -0.816988814   
4.53476123   -1.043439141   -0.820244003   
4.200951203   -1.47033689   -0.82145789   
4.02394853   -1.245242656   -0.818467313   
3.873481264   -1.045587431   -0.819703125   
3.703680356   -0.852004982   -0.815848678   
3.485234192   -1.224343465   -0.824834038   
3.362509085   -1.043320787   -0.820512028   
3.267132119   -0.882279741   -0.82384416   
3.208268099   -0.739100338   -0.836872286   
3.004027696   -1.059364232   -0.839047964   
2.916868376   -0.907559233   -0.835525979   
2.841532476   -0.768145986   -0.83620907   
2.762695029   -0.635944283   -0.837273566   
8.698012793   -3.040015908   0.679703221   
8.701464552   -3.044289885   0.342704219   
8.658222673   -3.032723953   0.006244543   
6.68482994   -2.082332827   -0.832789009   
6.173097147   -1.678798722   -0.822804812   
5.762867358   -1.344017085   -0.819544558   
5.294283909   -1.867099502   -0.82387842   
5.011766212   -1.564338504   -0.820756524   
4.74179607   -1.292217478   -0.816006052   
4.542088095   -1.059808284   -0.822153557   
4.197347696   -1.483545971   -0.821639386   
4.028541166   -1.260219707   -0.820183987   
3.869310283   -1.057207949   -0.819502974   
3.689622937   -0.860698315   -0.813329964   
3.486060573   -1.23666175   -0.82592367   
3.374160559   -1.058295257   -0.824143619   
3.260660895   -0.891274302   -0.822897996   
3.167291038   -0.73990034   -0.826771684   
2.989831647   -1.064682562   -0.835991318   
2.899348153   -0.91187356   -0.831304838   
2.812255219   -0.769497664   -0.828284214   
2.730844934   -0.637440998   -0.828209727   
8.694288194   -3.068678307   0.680144595   
8.725061261   -3.08262266   0.344004464   
8.645106997   -3.057938702   0.00624182   
6.674621532   -2.101638756   -0.832316524   
6.187999076   -1.703257116   -0.825483683   
5.745221309   -1.358499867   -0.817623976   
5.303443455   -1.888644065   -0.826201688   
4.998463171   -1.577031541   -0.819366425   
4.742564604   -1.30807056   -0.816825021   
4.533065089   -1.072377949   -0.821111966   
4.195555095   -1.497407945   -0.822183875   
4.033079813   -1.275236747   -0.821900661   
3.864159785   -1.068551664   -0.819102609   
3.706946083   -0.876739609   -0.817737669   
3.489600502   -1.249983998   -0.827667046   
3.348617185   -1.06157857   -0.818696233   
3.251356195   -0.899460218   -0.821242299   
3.165006117   -0.749613988   -0.826771684   
2.97290151   -1.068942406   -0.83217054   
2.899294583   -0.921640989   -0.832096326   
2.835838577   -0.785310089   -0.835935782   
2.745675179   -0.649791725   -0.833308129   
8.662286573   -3.087302079   0.678378985   
8.692032979   -3.100981678   0.343075734   
8.605549173   -3.073683691   0.006220039   
6.661518631   -2.119998342   -0.831489807   
6.159813443   -1.715846094   -0.82242209   
5.74487961   -1.377043122   -0.818172697   
5.282727607   -1.899549431   -0.823878419   
5.002072968   -1.595060685   -0.820756523   
4.738528917   -1.322614375   -0.81682502   
4.526881094   -1.085591191   -0.820591201   
4.193717072   -1.511272891   -0.822728365   
4.041303825   -1.291488616   -0.824380272   
3.862750452   -1.080929774   -0.819502973   
3.681420079   -0.882637342   -0.8127003   
3.478406746   -1.2580286   -0.825923669   
3.378732986   -1.082544611   -0.826867313   
3.257002141   -0.911788421   -0.823371078   
3.15703696   -0.757963006   -0.825293547   
2.980515703   -1.082017887   -0.835227185   
2.890025046   -0.928466329   -0.830249538   
2.777840699   -0.778432817   -0.819539558   
2.734342925   -0.655974996   -0.830475715   
8.763477407   -3.149383332   1.030051152   
6.654038023   -2.140121696   -0.831371671   
6.146883179   -1.732583454   -0.82140154   
5.750253212   -1.397000164   -0.819544557   
5.282455082   -1.917773527   -0.824749659   
4.998096659   -1.610702377   -0.820910961   
4.749638916   -1.341435682   -0.819445659   
4.506303692   -1.095287603   -0.817466427   
4.197377811   -1.52715795   -0.824361888   
4.029849611   -1.301467637   -0.822854335   
3.860358736   -1.093042302   -0.819703126   
3.706247038   -0.900622861   -0.818787128   
3.468113597   -1.266350958   -0.824398208   
3.383734844   -1.09560535   -0.828910084   
3.276625743   -0.928131726   -0.829047884   
3.154696765   -0.767645103   -0.825293548   
2.978089944   -1.091489657   -0.835481933   
2.899089527   -0.941200455   -0.833679247   
2.768961216   -0.785114598   -0.817626665   
2.74350025   -0.667079839   -0.833874669   
8.541424501   -3.110005942   0.006187366   
6.653107152   -2.162367409   -0.832080311   
6.145354008   -1.752521608   -0.821911815   
5.754596774   -1.416766327   -0.820779209   
5.262612088   -1.928863428   -0.822571587   
5.002525934   -1.629087978   -0.822455495   
4.761625733   -1.360608787   -0.822230089   
4.487622591   -1.105339113   -0.81468891   
4.190826481   -1.53935002   -0.823998895   
4.02677093   -1.314129414   -0.823045127   
3.857929012   -1.105150435   -0.819903279   
3.747137121   -0.9227433   -0.828442184   
3.476116557   -1.281373343   -0.827231158   
3.388688182   -1.108706924   -0.830952854   
3.288707338   -0.942462615   -0.832832364   
3.157031857   -0.778480158   -0.826525338   
2.972913636   -1.099950053   -0.834972495   
2.893438915   -0.949188327   -0.83288776   
2.80075129   -0.803419951   -0.827737698   
2.759133385   -0.679853157   -0.839256312   
8.405131846   -3.08961884   0.006095475   
6.65398912   -2.18524727   -0.833025223   
6.152337251   -1.77494113   -0.823570195   
5.735806509   -1.430818286   -0.818721418   
5.261309359   -1.946716549   -0.823297631   
5.001258332   -1.6456631   -0.823073297   
4.762167887   -1.376580559   -0.823049058   
4.472744187   -1.116240201   -0.812605728   
4.180551878   -1.550148774   -0.822909918   
4.029246334   -1.328629113   -0.824380273   
3.856402555   -1.117526577   -0.820303644   
3.714880769   -0.926897445   -0.821935504   
3.473083698   -1.292372297   -0.82744913   
3.390818759   -1.120932139   -0.8323147   
3.287666741   -0.953088857   -0.833305445   
3.15556884   -0.788397034   -0.826771683   
2.971336825   -1.109742366   -0.835481935   
2.892344348   -0.958667752   -0.833415437   
2.814902078   -0.816834107   -0.83265657   
2.761687236   -0.68947634   -0.840672521   
8.23435756   -3.055553198   0.005978398   
6.655735973   -2.20846588   -0.834088212   
6.153527315   -1.795752901   -0.82446319   
5.734270999   -1.449136848   -0.819132988   
5.26180037   -1.965272063   -0.824314011   
4.992435617   -1.659752308   -0.822455494   
4.745612954   -1.387585143   -0.820919742   
4.493167863   -1.13599196   -0.816945661   
4.175776509   -1.562967182   -0.822909919   
4.012112651   -1.336640681   -0.821709925   
3.855776504   -1.130179312   -0.820904161   
3.710123764   -0.937810969   -0.821515709   
3.50473464   -1.316405126   -0.83594804   
3.379973995   -1.128861721   -0.830498905   
3.270741633   -0.959069894   -0.829757476   
3.176624115   -0.804019599   -0.832930574   
2.983300606   -1.124651979   -0.839812153   
2.896706804   -0.969987064   -0.83552598   
2.813305908   -0.825737223   -0.832929801   
2.741893284   -0.693477877   -0.835290876   
8.200597077   -3.071681364   0.0059607   
6.14894041   -1.814904006   -0.824590745   
5.732676764   -1.467459447   -0.819544557   
5.262226411   -1.983848921   -0.825330447   
4.981700676   -1.673173672   -0.821528762   
4.714845795   -1.394304785   -0.816333641   
4.496339965   -1.151481734   -0.818160822   
4.170961908   -1.575770936   -0.822909919   
4.014505809   -1.351135176   -0.823045129   
3.851351626   -1.141724861   -0.820704007   
3.695863064   -0.946278897   -0.818997053   
3.507067588   -1.329573107   -0.837473501   
3.394950551   -1.145452895   -0.835038394   
3.264057915   -0.967994779   -0.828811315   
3.193857439   -0.818816017   -0.838104075   
2.978028479   -1.133111539   -0.839302711   
2.881838996   -0.974851386   -0.832096326   
2.807992902   -0.833543165   -0.832109999   
2.745327143   -0.703314685   -0.836990326   
8.104167538   -3.067826826   -0.311688086   
6.145244149   -1.834327425   -0.824845853   
5.737736239   -1.48752595   -0.820916418   
5.260739256   -2.001743208   -0.826056492   
4.97467256   -1.687814514   -0.821219889   
4.735119191   -1.416112187   -0.820592212   
4.488019731   -1.164034654   -0.817292859   
4.167026465   -1.588910156   -0.823091414   
4.009412032   -1.363129213   -0.822854335   
3.857215598   -1.156348786   -0.82270571   
3.689156802   -0.956631565   -0.818157463   
3.501148964   -1.339628784   -0.837037672   
3.377592891   -1.151150443   -0.831633777   
3.27596358   -0.98246996   -0.832595852   
3.141612382   -0.815701762   -0.825047201   
2.973635483   -1.141895958   -0.839047963   
2.887049466   -0.986495102   -0.834470737   
2.799894326   -0.840494639   -0.830470392   
2.748726314   -0.713179067   -0.838689831   
8.060176849   -3.079479065   -0.310358097   
6.141486764   -1.853745402   -0.82510102   
5.738894155   -1.50663126   -0.821739499   
5.250878717   -2.01645486   -0.825475646   
4.96199429   -1.700506257   -0.819984228   
4.740195212   -1.433488265   -0.822230091   
4.494904796   -1.180550081   -0.819202412   
4.176816646   -1.607337877   -0.825995353   
4.008924859   -1.376698813   -0.823617333   
3.861151134   -1.170450974   -0.824307051   
3.674856575   -0.964965358   -0.81563875   
3.501574755   -1.352121707   -0.838127246   
3.380491382   -1.163726337   -0.833222598   
3.267355119   -0.990824132   -0.831176665   
3.134408542   -0.824104064   -0.823815412   
2.976429939   -1.153459628   -0.840831035   
2.878538566   -0.993459697   -0.832887758   
2.800063975   -0.849918846   -0.831290195   
2.742815118   -0.720633856   -0.837556808   
8.671426079   -2.981357969   -0.0822629   
7.975163269   -3.07507074   -0.307446441   
6.138616683   -1.873447026   -0.825483683   
5.743818053   -1.526775477   -0.82311136   
5.251125092   -2.035057527   -0.826492082   
4.953952675   -1.714751866   -0.819520919   
4.736718109   -1.448312593   -0.822393883   
4.507441249   -1.198637163   -0.822153556   
4.167282389   -1.61836463   -0.825087873   
4.000045232   -1.387383164   -0.822663601   
3.864099274   -1.184301075   -0.825708295   
3.674713548   -0.976988787   -0.816268472   
3.499228785   -1.3635668   -0.838563133   
3.360347303   -1.168335204   -0.829137058   
3.248507892   -0.996001661   -0.827155615   
3.1580891   -0.840697285   -0.830713397   
2.984584839   -1.167164198   -0.844142371   
2.896426183   -1.009588353   -0.83895569   
2.791925797   -0.856811983   -0.829650591   
2.736884014   -0.728059124   -0.836423842   
8.757329188   -3.033775475   0.594782438   
8.999898503   -3.123087161   0.262767911   
8.664128168   -3.008603426   -0.082280841   
8.022502881   -3.121629426   -0.309639176   
6.133787665   -1.89256362   -0.825611237   
5.750584849   -1.547478903   -0.82475758   
5.239328339   -2.048996043   -0.825620842   
4.980379121   -1.74102758   -0.824772268   
4.731310194   -1.462546528   -0.82223009   
4.505644844   -1.212972248   -0.822500755   
4.191596759   -1.642623996   -0.830895809   
3.993916837   -1.398999585   -0.822282129   
3.854832405   -1.19441044   -0.824507261   
3.679251774   -0.990290972   -0.817947594   
3.49321245   -1.373581528   -0.838127246   
3.348476932   -1.175735214   -0.827094288   
3.24729303   -1.006538641   -0.82762864   
3.182633101   -0.857695695   -0.837857729   
2.969296358   -1.171700879   -0.840831034   
2.884216648   -1.015266976   -0.836317468   
2.799390076   -0.868508874   -0.832656572   
2.738341617   -0.73744985   -0.837556807   
8.172822307   -3.195039198   1.628596345   
8.776238959   -3.070515265   0.596703793   
8.804432303   -3.085554155   0.257336081   
8.652026027   -3.034177787   -0.082253929   
7.791496317   -3.059299039   -0.301084002   
6.136473985   -1.914030956   -0.826759341   
5.72478454   -1.559386841   -0.8217395   
5.238539243   -2.067239476   -0.826492081   
4.975014243   -1.756298949   -0.824772268   
4.725859263   -1.476760846   -0.822066296   
4.497151174   -1.225494998   -0.82163279   
4.186537346   -1.655475897   -0.830895808   
3.991457101   -1.411900833   -0.8226636   
3.850214829   -1.205938444   -0.82430705   
3.687516385   -1.004658291   -0.82046625   
3.483538867   -1.38213251   -0.836819757   
3.342100306   -1.18502622   -0.826413364   
3.230282101   -1.012138741   -0.824080672   
3.176246712   -0.866435581   -0.836872287   
2.962992521   -1.179731964   -0.840066846   
2.907445264   -1.0334796   -0.843968321   
2.767340874   -0.867881892   -0.823911914   
2.729589298   -0.744081886   -0.835574117   
8.11176276   -3.199893527   1.618377607   
8.740431087   -3.08811719   0.594910528   
8.68278469   -3.072864824   0.254054934   
8.653988098   -3.064713159   -0.082361575   
7.663149814   -3.036071964   -0.296482911   
6.135302597   -1.93433952   -0.827397171   
5.718063358   -1.576416373   -0.821465138   
5.234930475   -2.084399337   -0.826927674   
4.965879853   -1.770226814   -0.824154465   
4.719424993   -1.490658365   -0.821738709   
4.495269237   -1.239809952   -0.821979988   
4.191486126   -1.672320754   -0.832892267   
3.98987987   -1.42513048   -0.823235863   
3.841826553   -1.216266542   -0.823306227   
3.685359382   -1.016226584   -0.820676176   
3.448475939   -1.380481116   -0.829410422   
3.33753219   -1.194945799   -0.82618639   
3.227161558   -1.02204437   -0.824080671   
3.177310555   -0.877207809   -0.83785773   
2.956667065   -1.187735302   -0.839302711   
2.901537316   -1.04141719   -0.843176832   
2.764665181   -0.876367857   -0.823911914   
2.719897724   -0.750412142   -0.83330813   
7.944783713   -3.162225935   1.586991826   
7.777871377   -3.095318688   1.236592869   
8.660352239   -3.088380088   0.925356424   
8.699898136   -3.103852045   0.592797066   
8.652607219   -3.092088292   0.253448338   
8.637012483   -3.08855516   -0.082289811   
7.612041275   -3.042875419   -0.29486533   
6.137844722   -1.955863488   -0.828545276   
5.71510863   -1.594484116   -0.8217395   
5.235855346   -2.103400773   -0.828089308   
4.94926997   -1.781438252   -0.822301058   
4.71295009   -1.504530432   -0.821411123   
4.475318897   -1.249094642   -0.819028843   
4.178125176   -1.681867287   -0.8312588   
3.985488696   -1.437364485   -0.823235862   
3.826879268   -1.224464434   -0.820904161   
3.69729234   -1.031733083   -0.824034423   
3.455988696   -1.395805755   -0.832243372   
3.338429922   -1.206835059   -0.827321263   
3.22401085   -1.031940402   -0.824080672   
3.169003721   -0.885386764   -0.836379594   
2.947632055   -1.194621325   -0.837774389   
2.888353159   -1.046699026   -0.8402748   
2.729900835   -0.874573741   -0.814347395   
2.720353836   -0.759526833   -0.834157911   
7.809135586   -3.136022027   1.561810176   
7.482183912   -3.017621401   -0.290192356   
6.138423613   -1.976813052   -0.829438272   
5.714002994   -1.613086768   -0.822288221   
5.244965943   -2.125772069   -0.830557716   
4.9465674   -1.797626435   -0.822764367   
4.704556766   -1.517770879   -0.820755949   
4.474308916   -1.26362193   -0.81954961   
4.163834722   -1.690977448   -0.829443782   
3.979215792   -1.448913273   -0.822854336   
3.809120918   -1.231677835   -0.817901576   
3.690345785   -1.042008575   -0.823194889   
3.459824647   -1.409716491   -0.834204664   
3.335626546   -1.217405495   -0.827548237   
3.220829737   -1.041826604   -0.824080672   
3.15135029   -0.8908865   -0.832437879   
2.935897268   -1.200365238   -0.835481933   
2.882410817   -1.054561248   -0.839483311   
2.766557258   -0.895685331   -0.826098036   
2.723548297   -0.769433614   -0.835857359   
7.832282675   -3.173256568   1.568379322   
7.629450798   -3.090613988   1.215987901   
7.483998811   -3.045082015   -0.290623715   
6.121012293   -1.991953024   -0.827907446   
5.713789435   -1.631969702   -0.82297415   
5.234756393   -2.140355472   -0.829976928   
4.951231846   -1.816537118   -0.824463337   
4.693312331   -1.530056761   -0.819609451   
4.483667666   -1.281130786   -0.821979987   
4.146797546   -1.698897463   -0.827084332   
3.984886583   -1.46484013   -0.824952536   
3.805324243   -1.243358201   -0.817901576   
3.68713157   -1.053325494   -0.823194889   
3.463607515   -1.42366375   -0.836165954   
3.340100518   -1.230663623   -0.829591008   
3.225930208   -1.054419872   -0.826209452   
3.168170402   -0.906147345   -0.837611382   
2.957231923   -1.219690706   -0.84261405   
2.874637746   -1.061728471   -0.838164201   
2.768367478   -0.905664319   -0.827464411   
2.723941211   -0.778576395   -0.836707083   
7.502356496   -3.079412244   -0.291702082   
6.129947559   -2.015679834   -0.829948547   
5.716368626   -1.651691419   -0.82407165   
5.219018734   -2.152632936   -0.8285249   
4.943782599   -1.831032413   -0.824154465   
4.701713954   -1.548769417   -0.821902503   
4.475932186   -1.293786656   -0.821285595   
4.128841837   -1.706353205   -0.824543383   
3.98405509   -1.478424768   -0.825715476   
3.804282857   -1.25594844   -0.818502093   
3.671672072   -1.061103591   -0.820466251   
3.466435838   -1.437273693   -0.837909331   
3.335396191   -1.240565644   -0.829364032   
3.195924371   -1.055475657   -0.819350029   
3.150479786   -0.911552942   -0.83366967   
2.95615435   -1.229871911   -0.843378238   
2.877693494   -1.072901482   -0.84001099   
2.77105589   -0.915964646   -0.829104016   
2.713248011   -0.78453213   -0.83415791   
7.637231966   -3.148921799   1.533161443   
7.362683546   -3.048509538   -0.286633691   
6.135029404   -2.038229292   -0.831479314   
5.716028056   -1.670610532   -0.82475758   
5.205995094   -2.16597404   -0.827508461   
4.955725244   -1.852764911   -0.827089041   
4.697876015   -1.563498291   -0.822066295   
4.479503375   -1.309723431   -0.822674323   
4.129033447   -1.721282592   -0.82563236   
3.974904089   -1.488919027   -0.824761742   
3.839447599   -1.280634091   -0.826909327   
3.667460822   -1.072088798   -0.820256381   
3.453006001   -1.444136084   -0.835730124   
3.340692187   -1.254215732   -0.831633777   
3.235989864   -1.079729521   -0.830467072   
3.159760395   -0.924753118   -0.836872287   
2.929183632   -1.229206669   -0.836755509   
2.866263489   -1.078667397   -0.837636579   
2.773707207   -0.926290016   -0.830743679   
2.719112849   -0.795275511   -0.836707085   
7.587590855   -3.155724504   1.525132576   
8.20165851   -3.073609568   0.241592065   
7.367128303   -3.076860585   -0.287172903   
7.809030229   -2.932378231   -0.377761867   
6.12874764   -2.057041746   -0.831479315   
5.717525604   -1.690104748   -0.825717872   
5.199325643   -2.181935666   -0.827508462   
4.951866336   -1.868657832   -0.827397913   
4.708953431   -1.583248347   -0.824850728   
4.470742505   -1.322063934   -0.821806361   
4.143676412   -1.742327947   -0.829625276   
3.976745005   -1.503536986   -0.826096946   
3.838286053   -1.293345961   -0.827509844   
3.664154503   -1.083335459   -0.820256382   
3.434171532   -1.448653685   -0.832243372   
3.320435768   -1.258247065   -0.827548236   
3.226216923   -1.087479773   -0.828811314   
3.144827096   -0.930866745   -0.833669668   
2.952114469   -1.24949513   -0.84439712   
2.868350946   -1.089510914   -0.8392195   
2.795461908   -0.943097759   -0.838121961   
2.69366867   -0.796812851   -0.829625989   
8.336771213   -3.140978355   1.563495751   
8.183775177   -3.095574424   0.241343901   
7.320815046   -3.08392974   -0.285735061   
7.757026994   -2.940035972   -0.375680771   
6.122407598   -2.075834619   -0.831479314   
5.713262394   -1.707921605   -0.82585508   
5.199896345   -2.200961988   -0.828670096   
4.963652805   -1.890522679   -0.830332546   
4.710612727   -1.599908583   -0.825997283   
4.469496014   -1.336620217   -0.822327128   
4.146459809   -1.758487932   -0.8312588   
3.985870428   -1.520979978   -0.828958029   
