X     Y     Z
-5.05723003   -22.64342543   2.972978134   
-2.392504121   -12.89505921   1.55506325   
-4.013287865   -13.3103331   1.537765543   
-3.530359643   -13.45220761   1.399700499   
-3.62362392   -16.19663738   1.514538006   
-5.992968931   -22.58235565   3.220834042   
-5.127332756   -22.63070632   2.973359366   
-2.433895954   -12.89741682   1.556240681   
-4.058452456   -13.31221867   1.539414684   
-3.528942521   -13.28072513   1.382977819   
-3.646848704   -16.0689038   1.503632977   
-6.061965032   -22.56290577   3.220697665   
-5.209400586   -22.66996955   2.980604189   
-2.474576128   -12.89573987   1.556947233   
-4.1063011   -13.32250173   1.542053264   
-3.577683068   -13.29962124   1.386082029   
-3.609233435   -15.68012232   1.468282179   
-6.148576812   -22.60824797   3.229847217   
-5.279601688   -22.65678014   2.980985422   
-2.515268729   -12.89393554   1.557653668   
-4.148041396   -13.31268745   1.542383115   
-3.622651484   -13.30394275   1.387684202   
-3.603222053   -15.43719431   1.446562842   
-6.218697549   -22.59214437   3.230257059   
-5.350911749   -22.64819835   2.982002277   
-2.556746233   -12.8958996   1.558831099   
-4.189760649   -13.30274289   1.542712967   
-3.666622488   -13.3042764   1.388885831   
-3.617312063   -15.2855486   1.433385806   
-6.289840993   -22.57963938   3.231212879   
-5.423373221   -22.64421463   2.983654517   
-2.602769936   -12.92011998   1.562716726   
-4.239296165   -13.31729194   1.54590122   
-3.712233706   -13.31021614   1.390688276   
-3.614476582   -15.06714324   1.413938359   
-6.362309942   -22.57167714   3.232851767   
-5.496797273   -22.64385624   2.985815068   
-2.642395953   -12.91207322   1.562716724   
-4.282264149   -13.31084719   1.546670836   
-3.760888239   -13.32653417   1.393592214   
-3.566338565   -14.66794835   1.377497153   
-6.436690912   -22.57015164   3.235446476   
-5.561502691   -22.60762197   2.983273286   
-2.679976382   -12.89418304   1.561539294   
-4.330456313   -13.32033204   1.549309532   
-3.798204442   -13.30249501   1.392290448   
-3.570344213   -14.49062334   1.361866549   
-6.526225199   -22.62073243   3.245552087   
-5.641151564   -22.63183867   2.988738555   
-2.729980614   -12.93545448   1.567544225   
-4.37316338   -13.31265018   1.549969118   
-3.846176912   -13.31563333   1.39489398   
-3.585356313   -14.36172346   1.350779609   
-5.804100534   -19.88845476   2.856074834   
-5.704487222   -22.590381   2.985560912   
-2.765492383   -12.90759829   1.565189365   
-4.415863732   -13.30483042   1.550628821   
-3.887847654   -13.30663631   1.395194387   
-3.533195992   -13.9702641   1.314974503   
-6.673594324   -22.60971543   3.249785447   
-5.78851462   -22.6304314   2.993186969   
-2.799381769   -12.87285318   1.562010291   
-4.461717371   -13.30629791   1.552387874   
-3.930063336   -13.29941638   1.395695066   
-3.525376863   -13.76159304   1.296344952   
-6.748879029   -22.60906886   3.252653384   
-5.851448998   -22.58760124   2.98988225   
-2.845282025   -12.8932957   1.565542582   
-4.511448144   -13.31890661   1.555466216   
-3.971986401   -13.29110966   1.396095609   
-3.459039907   -13.33235851   1.256904797   
-6.83424161   -22.64136546   3.260300898   
-3.509543735   -13.37823992   1.772271653   
-5.061678095   -22.60699598   2.746881964   
-4.553575722   -13.30876482   1.55590598   
-4.018788624   -13.29886225   1.398198461   
-3.491070047   -13.28797298   1.253724174   
-6.904828843   -22.62408186   3.260847115   
-3.535548014   -13.31084868   1.764772791   
-5.136070457   -22.613633   2.74959016   
-4.594384821   -13.29473147   1.555905979   
-4.063640045   -13.29979265   1.399600363   
-3.532844471   -13.28104913   1.254087643   
-3.593499268   -15.78611676   1.32394501   
-6.98121578   -22.62551069   3.264124656   
-3.600064887   -13.38806252   1.776465911   
-5.213225451   -22.63163918   2.753711226   
-4.635150986   -13.28057356   1.555905979   
-4.107360811   -13.2967695   1.400601721   
-3.572537625   -13.26630175   1.253724173   
-3.617699913   -15.67013515   1.315142713   
-7.055021531   -22.61817087   3.26617291   
-3.653626315   -13.42289452   1.782566686   
-5.281278889   -22.60973736   2.753004792   
-4.685785757   -13.29441303   1.559204262   
-4.151101065   -13.29360273   1.401603079   
-3.617411742   -13.27065209   1.255178169   
-3.615324359   -15.44352583   1.297048889   
-7.130039816   -22.61437052   3.268767619   
-3.688467479   -13.38867136   1.779516357   
-5.351306274   -22.59632652   2.753358127   
-4.736215008   -13.3071304   1.562392633   
-4.193063614   -13.28459987   1.402003621   
-3.664200015   -13.28157175   1.257268267   
-3.601005786   -15.17247284   1.275205933   
-7.203897904   -22.60654891   3.270816113   
-3.729526022   -13.37729291   1.779516358   
-5.426169114   -22.60297854   2.756183866   
-4.781724718   -13.30563267   1.563931863   
-4.236521948   -13.28020459   1.402904844   
-3.709750551   -13.28753271   1.258904056   
-3.620028226   -15.04700819   1.265588485   
-7.277471266   -22.59754225   3.272727991   
-3.772973178   -13.37437967   1.78066029   
-5.508165764   -22.63832797   2.762542249   
-4.828964865   -13.30865191   1.566020768   
-4.284572647   -13.28987258   1.405308104   
-3.749686469   -13.27321322   1.258631424   
-3.569373408   -14.63882721   1.232171976   
-7.348297998   -22.57981844   3.273410821   
-3.819159669   -13.38086338   1.783075113   
-5.567608823   -22.58082714   2.757596971   
-4.876267963   -13.31150653   1.568109672   
-4.329639734   -13.28990884   1.406710004   
-3.78902196   -13.25685995   1.258177117   
-3.585818491   -14.5126653   1.222472989   
-7.426820839   -22.58539994   3.277507806   
-3.864596239   -13.38433101   1.785108704   
-5.639025604   -22.57231219   2.758656505   
-4.915705159   -13.29275507   1.567669909   
-4.375059158   -13.2907399   1.408212042   
-3.83382477   -13.25952239   1.259540275   
-3.579982028   -14.30049382   1.205520236   
-7.492016518   -22.55028758   3.275732304   
-3.90591857   -13.37336326   1.785235781   
-5.717021163   -22.58956116   2.762895348   
-4.970367774   -13.31485842   1.57206754   
-4.41958162   -13.28858442   1.409413671   
-3.879238565   -13.26394762   1.261085109   
-3.521672125   -13.88658344   1.171533309   
-7.585436627   -22.59950996   3.286247755   
-3.948615299   -13.36702503   1.785998364   
-5.798874208   -22.62097546   2.768900398   
-5.008390216   -13.29210606   1.571188014   
-4.457794536   -13.26741783   1.408612585   
-3.926128085   -13.27299284   1.263084368   
-3.527064197   -13.73091417   1.159307682   
-7.656643724   -22.58176094   3.287067199   
-3.996703788   -13.37860769   1.789175887   
-3.481620378   -13.41036479   1.642783526   
-5.058332175   -13.30083199   1.574046533   
-4.499436834   -13.25650552   1.408912993   
-3.960266424   -13.23894096   1.260994271   
-3.485614997   -13.398827   1.132166946   
-7.735837813   -22.58721614   3.291300559   
-4.044327515   -13.38812127   1.792099137   
-3.534108344   -13.44283847   1.648082139   
-5.101251776   -13.29081858   1.574706237   
-4.543313087   -13.25205092   1.409914351   
-4.010378977   -13.2581846   1.263993101   
-3.527213303   -13.38999769   1.132330023   
-7.816432828   -22.59614404   3.296080374   
-4.084802912   -13.37375332   1.791844982   
-3.543148931   -13.31101927   1.633246186   
-5.145952391   -13.28530114   1.575915615   
-4.587529309   -13.24839206   1.411015844   
-4.041133297   -13.21343996   1.260903315   
-3.554664208   -13.32807393   1.128010355   
-7.891600941   -22.58889132   3.29853847   
-4.130789045   -13.37727001   1.794005651   
-3.609032684   -13.39309436   1.644667509   
-5.189220136   -13.27593122   1.576685112   
-4.631766489   -13.2445867   1.412117339   
-4.100479191   -13.26187064   1.266719417   
-3.590601271   -13.29882345   1.126461708   
-7.957240399   -22.55429807   3.297036196   
-4.182154793   -13.39767284   1.798454183   
-3.64905983   -13.37812682   1.644196513   
-5.235030894   -13.27289309   1.578224342   
-4.679998603   -13.25189203   1.414420461   
-4.150356937   -13.27869408   1.269536571   
-3.631122057   -13.28678338   1.126380287   
-8.051332243   -22.5997671   3.307278419   
-4.234281987   -13.41977837   1.803156753   
-3.691671802   -13.37261249   1.644902948   
-5.284914827   -13.2798565   1.58097295   
-4.723640671   -13.24590636   1.415321684   
-4.19047568   -13.26399897   1.269354777   
-3.673462352   -13.28134505   1.126869284   
-8.1176116   -22.56657076   3.306049371   
-4.274227847   -13.4029448   1.802648443   
-3.736688838   -13.37557005   1.646669153   
-5.330076209   -13.27464851   1.582292239   
-4.765267621   -13.23416087   1.415622092   
-4.229634973   -13.24633737   1.26890047   
-3.71365439   -13.26809272   1.126706207   
-8.18071951   -22.5248003   3.303591276   
-4.320804074   -13.40676152   1.804936189   
-3.783109343   -13.38315428   1.649024131   
-5.396899873   -13.3227198   1.589988154   
-4.839162136   -13.31111796   1.425435518   
-4.276981991   -13.2541488   1.270899728   
-3.758145019   -13.27006238   1.127847278   
-8.237850262   -22.46704185   3.29881146   
-4.366215342   -13.40664662   1.806715626   
-3.829611768   -13.39058059   1.651378992   
-5.434739991   -13.29873847   1.589108627   
-4.858379653   -13.23736434   1.419126845   
-4.323182642   -13.25800763   1.272535519   
-3.798290138   -13.25655336   1.127684318   
-8.309490698   -22.44909489   3.299904131   
-4.402674903   -13.37905483   1.804809111   
-3.872883294   -13.38640013   1.652320984   
-5.488015386   -13.31232654   1.592736761   
-4.90761073   -13.2457215   1.42163024   
-4.368823448   -13.25981549   1.273989515   
-3.848376507   -13.27738559   1.130455457   
-5.808096302   -19.8856918   3.231158341   
-8.26390407   -22.11726641   3.254838253   
-4.460599249   -13.41631137   1.811672467   
-3.916165222   -13.38207987   1.653262975   
-5.530357916   -13.29909858   1.593176525   
-4.949270601   -13.2333986   1.421930647   
-4.406966906   -13.23878991   1.273262457   
-3.895822306   -13.28847072   1.132411562   
-8.324378912   -22.07234454   3.251970554   
-4.495422234   -13.38375837   1.809130449   
-3.959175268   -13.3766671   1.654087187   
-5.575361736   -13.29215091   1.594385903   
-5.004605226   -13.25724797   1.426136469   
-4.448196901   -13.22709546   1.273444251   
-3.941672287   -13.29365585   1.133878552   
-8.379369666   -22.01337253   3.247054125   
-4.537099242   -13.37178222   1.809384722   
-4.004466903   -13.3787277   1.655853274   
-5.630056858   -13.30793727   1.598343771   
-5.054464825   -13.2660058   1.42874   
-4.495803604   -13.23413059   1.27544351   
-3.983010598   -13.28340998   1.13404163   
-8.442247803   -21.97553907   3.24527886   
-4.577780585   -13.35686149   1.809257527   
-4.046356233   -13.36923112   1.65620661   
-5.670078343   -13.28877371   1.598123949   
-5.098354918   -13.25879472   1.429641222   
-4.539293274   -13.22875308   1.276261405   
-4.024901724   -13.27494216   1.134367549   
-8.450901472   -21.79805657   3.222882533   
-4.620034994   -13.34650352   1.809765954   
-4.087062933   -13.35580483   1.656088832   
-5.718285765   -13.28866299   1.600212853   
-5.135048617   -13.23288721   1.428539728   
-4.581813516   -13.22041002   1.276806668   
-4.067362133   -13.26824951   1.134856664   
-8.501856828   -21.7314362   3.216873908   
-4.660632373   -13.33132986   1.809638876   
-4.125377273   -13.33466466   1.655029062   
-5.768919885   -13.29385122   1.602961461   
-5.197027114   -13.27173263   1.43444774   
-4.628273369   -13.22321007   1.278442457   
-4.108639442   -13.25761286   1.135019624   
-8.558667294   -21.68037156   3.213186528   
-4.698868914   -13.30948561   1.808622021   
-4.173678426   -13.34563986   1.657972697   
-5.818045378   -13.29521174   1.605270188   
-5.247226337   -13.27978522   1.437051271   
-4.669483709   -13.21082703   1.278624134   
-4.144825016   -13.23067831   1.133797131   
-8.59838081   -21.58682966   3.203217531   
-4.739346585   -13.29407331   1.808494944   
-4.221785929   -13.35549678   1.660798671   
-5.865227367   -13.29184904   1.60702924   
-5.28794369   -13.26362438   1.437051271   
-4.71702167   -13.21613503   1.280532555   
-4.185396491   -13.21790048   1.133797132   
-8.626520091   -21.46567256   3.18915155   
-4.784141056   -13.29067005   1.810020109   
-4.266971317   -13.35572484   1.662447097   
-5.907190468   -13.27651711   1.607359093   
-5.32304109   -13.23349255   1.435549234   
-4.763285989   -13.21752762   1.282077506   
-4.230181719   -13.21828662   1.134938085   
-8.872604949   -19.77774381   3.202106218   
-8.700152064   -21.45838357   3.192019486   
-4.824893849   -13.27592986   1.810020108   
-4.30701063   -13.33973604   1.66209388   
-5.947894804   -13.25833115   1.607359092   
-5.365860909   -13.22263101   1.436150049   
-4.806879072   -13.21127496   1.282895283   
-4.275008388   -13.21852245   1.136079155   
-8.70556443   -21.28397016   3.170032764   
-4.885759158   -13.31600438   1.817518968   
-4.34329576   -13.31229877   1.660327675   
-5.978302419   -13.21738037   1.604610602   
-5.419218885   -13.23741413   1.439554667   
-4.854598707   -13.21609579   1.284803704   
-4.327307051   -13.24134549   1.139176332   
-9.120210375   -20.00015922   3.24711583   
-8.695631751   -21.07493014   3.142856861   
-4.936924652   -13.32885663   1.821331996   
-4.397486081   -13.33946545   1.665390733   
-10.32746958   -22.6476175   2.753289502   
-5.464742477   -13.23268065   1.440856432   
-4.901354661   -13.21794724   1.286439494   
-4.375098603   -13.24977416   1.141050898   
-10.32127162   -22.60788808   1.833337412   
-9.110868147   -19.81838386   3.222126702   
-8.734363696   -20.98596091   3.133570457   
-4.969456794   -13.29135046   1.818281669   
-4.443724628   -13.34192757   1.667392375   
-10.40105501   -22.62485869   2.754389088   
-5.51755745   -13.2452443   1.444060778   
-4.945374537   -13.21217443   1.287348227   
-4.41541189   -13.23534364   1.140969359   
-9.128869289   -19.83473146   1.610717878   
-9.227366693   -19.91061376   3.241708974   
-8.787969685   -20.93349009   3.1297467   
-5.016164359   -13.29181711   1.820442336   
-4.489386643   -13.34234921   1.66915858   
-10.45704383   -22.56398471   2.750870983   
-5.574355028   -13.26678047   1.448266482   
-4.99714828   -13.22675148   1.290256337   
-4.465227554   -13.24912509   1.14333304   
-9.192196267   -19.81205869   1.611159191   
-9.232300231   -19.76210892   3.222126703   
-8.832452412   -20.85990621   3.122782016   
-5.072807323   -13.31807718   1.826161761   
-4.540845065   -13.35954064   1.673044088   
-10.53168901   -22.54350202   2.752300064   
-5.615418956   -13.2505324   1.448366618   
-5.041961649   -13.22252434   1.291346745   
-4.512599875   -13.25517739   1.145044529   
-9.262653507   -19.80454298   1.612851367   
-9.241889241   -19.62539658   3.204444389   
-8.879679402   -20.79353531   3.116909766   
-5.1236081   -13.32837501   1.829720516   
-4.586002531   -13.35775718   1.674574855   
-10.62747965   -22.56773648   2.7592266   
-5.663083334   -13.24971035   1.450169062   
-5.090015151   -13.22651156   1.293255167   
-4.556161767   -13.2497526   1.145778142   
-9.271911193   -19.66688062   1.603949532   
-9.243514719   -19.47362125   3.184277754   
-8.868980773   -20.59332703   3.090962912   
-5.176672446   -13.34403475   1.834041971   
-4.624358852   -13.33611859   1.673632863   
-10.69112634   -22.52335343   2.757797282   
-5.705675197   -13.23684278   1.450669741   
-5.142467022   -13.24146735   1.296254114   
-4.599732703   -13.24418609   1.146511638   
-9.262860851   -19.49241914   1.592031345   
-9.213556057   -19.25776982   3.153589469   
-8.957375173   -20.62417244   3.09970286   
-5.227349301   -13.3530277   1.837473648   
-4.666893197   -13.32655484   1.674221638   
-10.76489498   -22.50030916   2.759006541   
-5.763314211   -13.25851286   1.454975581   
-5.191060842   -13.24602654   1.298253373   
-4.649250259   -13.25540558   1.148712241   
-10.82785247   -22.60655795   1.849081144   
-9.220602466   -19.1215915   3.135907154   
-8.960198847   -20.45866713   3.078945423   
-5.271935546   -13.34615282   1.83874454   
-4.720999891   -13.34962239   1.678931358   
-10.85546034   -22.51194176   2.764503758   
-5.809156829   -13.25261541   1.456277347   
-5.241196309   -13.25411659   1.300616102   
-4.691226619   -13.24483684   1.149038278   
-10.91753438   -22.61544291   1.85253881   
-9.255440506   -19.04427712   3.127869825   
-9.002512822   -20.38486461   3.071980738   
-5.317262838   -13.34097296   1.840269822   
-4.76794496   -13.35190974   1.68105078   
-10.95923184   -22.55004771   2.773299257   
-5.851799006   -13.23928059   1.456778025   
-5.28552537   -13.24722381   1.301524952   
-4.731839222   -13.23038226   1.149038278   
-10.98599383   -22.58005003   1.852391706   
-9.299899815   -18.9873612   3.123193482   
-9.041637327   -20.3046623   3.064059997   
-5.365198941   -13.34208199   1.842684645   
-4.797770142   -13.30639166   1.677165272   
-11.01830714   -22.49578966   2.770770353   
-5.90332475   -13.24580255   1.459481692   
-5.330976953   -13.2429559   1.302706317   
-4.774099772   -13.22049042   1.149445736   
-11.05872922   -22.55340171   1.852980242   
-9.189528819   -18.61721409   3.066931704   
-8.887217053   -19.79423972   2.991135384   
-5.407970948   -13.33015462   1.84332015   
-4.857933604   -13.34479825   1.683876755   
-11.07671263   -22.44048955   2.768131774   
-5.954537787   -13.25122621   1.462085223   
-5.371205785   -13.22561537   1.302615361   
-4.82112345   -13.22357274   1.150994383   
-11.16321496   -22.59089497   1.858865724   
-9.224132189   -18.54376014   3.059478739   
-9.088434905   -20.07733075   3.038113141   
-5.447714614   -13.31074699   1.842938918   
-4.905017905   -13.34660891   1.685996177   
-11.20349624   -22.52298137   2.782534401   
-5.996806406   -13.23652004   1.462485766   
-5.416286488   -13.22013222   1.303705887   
-4.864768263   -13.2171368   1.151727878   
-11.24580686   -22.58332266   1.861072884   
-9.245072892   -18.44373998   3.047641735   
-9.151633773   -20.05295846   3.038659358   
-5.495339017   -13.31047326   1.845226663   
-4.945941951   -13.33149793   1.685996177   
-11.31574647   -22.57469366   2.793198627   
-10.3352797   -22.62772564   2.503599381   
-5.462144969   -13.21633838   1.304978207   
-4.90772501   -13.20868993   1.152298414   
-9.907423708   -19.74360782   1.629551516   
-10.33117677   -22.61038949   1.595351602   
-9.226683734   -18.26694266   3.023091059   
-9.185370409   -19.96449099   3.029509569   
-5.564367744   -13.36131014   1.854632038   
-4.990649715   -13.32649053   1.687291385   
-11.41273472   -22.59487492   2.800015251   
-10.39924128   -22.58416194   2.502297615   
-5.513012686   -13.22433706   1.307431774   
-4.951025571   -13.20103688   1.152950488   
-9.962099958   -19.70154935   1.6285951   
-9.14208157   -19.84667832   1.402321125   
-9.216720917   -18.10894732   3.001609305   
-9.224069594   -19.88768823   3.022135282   
-5.604180724   -13.34143241   1.854250687   
-5.04028942   -13.33433998   1.690235021   
-11.47433753   -22.54469725   2.798146051   
-10.48398021   -22.58554427   2.506002641   
-5.569771307   -13.24591737   1.311248617   
-4.998912367   -13.20535949   1.154661977   
-9.966355134   -19.56070674   1.61947249   
-9.204188584   -19.82125351   1.402513291   
-9.229801416   -17.99784157   2.987872581   
-9.243084574   -19.7695564   3.008478905   
-5.647406969   -13.32965647   1.85501327   
-5.09250168   -13.34850406   1.694002869   
-11.55524143   -22.5323836   2.801004689   
-10.55617413   -22.55958222   2.506703591   
-5.612715555   -13.23426819   1.31179388   
-5.045805453   -13.20671939   1.156129085   
-11.57902655   -22.55451847   1.870268927   
-9.265802187   -19.79472943   1.402641322   
-9.24455721   -17.89122124   2.97486661   
-9.257237365   -19.64253377   2.993457102   
-5.699188215   -13.33780695   1.858572025   
-5.124867044   -13.31057595   1.691176894   
-11.65716686   -22.560404   2.808920425   
-10.63255242   -22.54238762   2.5084059   
-5.650941564   -13.21149187   1.311248616   
-5.098132128   -13.22186501   1.158818685   
-11.67061955   -22.56229325   1.873873816   
-10.64917084   -22.56945327   1.601563956   
-9.222658208   -17.71535777   2.950315932   
-9.283026531   -19.54156298   2.982395436   
-5.744006759   -13.3293686   1.859843035   
-5.178267151   -13.32718692   1.695298077   
-11.77451862   -22.61710454   2.820464414   
-10.72430359   -22.55728734   2.513713098   
-5.708014162   -13.23249814   1.315065458   
-5.132166406   -13.18944268   1.157351577   
-11.78725763   -22.61747452   1.881451473   
-10.72179105   -22.54388541   1.602076317   
-9.191037149   -17.52315529   2.922988871   
-9.295020447   -19.41291973   2.967100407   
-5.799500814   -13.34534273   1.864545722   
-5.233991878   -13.34914359   1.700125578   
-11.83138614   -22.55710901   2.817496102   
-10.79603773   -22.52966208   2.514313912   
-5.74620028   -13.20944498   1.314520195   
-5.179164009   -13.19033445   1.158818685   
-11.85890965   -22.5856209   1.881819234   
-9.218965726   -19.23166531   1.368697668   
-9.224418223   -17.45639082   2.916558961   
-9.196093103   -19.05599101   2.916845346   
-5.842008765   -13.331121   1.865054149   
-5.277844342   -13.34040946   1.701067569   
-11.95208087   -22.61825044   2.829699558   
-10.87678948   -22.5206252   2.517017579   
-5.80230125   -13.227321   1.318064288   
-5.23722809   -13.21885929   1.162730895   
-11.94726496   -22.58527412   1.884835586   
-9.271412165   -19.18981315   1.367737079   
-9.227723922   -17.33369841   2.900776366   
-9.249746629   -19.0178883   2.915343071   
-5.895709599   -13.34216721   1.869121331   
-5.3205882   -13.32876602   1.701656225   
-12.02468532   -22.58761531   2.830469172   
-10.98807086   -22.57392746   2.526730752   
-5.848494586   -13.22220809   1.319336609   
-5.289966893   -13.2332701   1.165420495   
-12.02165915   -22.55819709   1.885644899   
-11.00702954   -22.60485426   1.613540317   
-9.22615605   -17.20330535   2.883678417   
-9.23000218   -18.83019732   2.890898253   
-5.927330104   -13.30317826   1.866198081   
-5.36739094   -13.3271184   1.703540208   
-12.08922903   -22.54185995   2.829369824   
-11.06253339   -22.55083022   2.527932382   
-5.904446485   -13.23876394   1.322789863   
-5.331286923   -13.21882786   1.165583455   
-12.12147227   -22.57832246   1.89042686   
-11.09567201   -22.61039843   1.616358305   
-9.277480576   -17.17230927   2.883240203   
-9.267107828   -18.76004795   2.884480024   
-8.864580811   -19.73241607   2.77190711   
-5.411243058   -13.31794853   1.704482199   
-12.1748658   -22.53527133   2.8332179   
-11.17443875   -22.6033015   2.537645555   
-5.951978012   -13.23602728   1.324334697   
-5.37782646   -13.2171795   1.166887603   
-12.18546606   -22.53137716   1.889617548   
-11.16764201   -22.58161732   1.616742517   
-9.250675984   -16.99778644   2.858689527   
-9.317114442   -18.71645204   2.882158304   
-9.319173233   -20.57522843   2.894303817   
-5.460739072   -13.32241846   1.707190278   
-12.25582357   -22.51963929   2.83596639   
-11.23042127   -22.54219523   2.53464148   
-5.9999593   -13.23403101   1.325970487   
-5.428190764   -13.2245914   1.169006668   
-12.29461127   -22.56745044   1.895797358   
-11.24354559   -22.56064615   1.617703224   
-9.257127644   -16.88604903   2.844660501   
-9.318525294   -18.57621012   2.864951397   
-9.376485531   -20.53390777   2.892524261   
-5.506518671   -13.31753223   1.708721044   
-9.212942633   -16.80545159   2.119910996   
-11.32006149   -22.54853789   2.539247727   
-10.33236976   -22.60530319   2.268081145   
-5.480176369   -13.23550173   1.17145177   
-12.37386519   -22.54798488   1.89734231   
-9.938200369   -19.78910404   1.421150233   
-10.35111722   -22.6254279   1.360563664   
-9.17977203   -16.62374866   2.805204133   
-9.352232966   -18.50156125   2.8578501   
-9.461006746   -20.55189738   2.899133463   
-5.563787719   -13.33998629   1.713784101   
-9.244278252   -16.74056284   2.115293305   
-11.42871003   -22.59183286   2.548059678   
-10.40209026   -22.57440075   2.268171982   
-5.529206602   -13.2388593   1.173244798   
-12.45649198   -22.53435513   1.899402246   
-10.02454985   -19.80927499   1.424800779   
-9.204281905   -16.54795768   2.797166803   
-9.358595598   -18.37391605   2.842555071   
-9.520674834   -20.51557652   2.898116608   
-5.610463898   -13.33658466   1.715550187   
-9.263706032   -16.65479556   2.108037273   
-11.50248618   -22.56552803   2.549061036   
-10.47339636   -22.54689848   2.268626408   
-5.584500154   -13.2567369   1.176341974   
-12.5600135   -22.55789892   1.90462564   
-10.08028988   -19.76864665   1.42409637   
-9.221161157   -16.45922847   2.786937217   
-9.328077426   -18.17590047   2.816334988   
-9.582729612   -20.48447353   2.897862453   
-5.658335568   -13.33576402   1.717669609   
-9.179706595   -16.38523549   2.077473205   
-11.58802655   -22.56199438   2.552665925   
-10.57208114   -22.57779096   2.274987654   
-5.622416877   -13.23312049   1.175771439   
-9.200276962   -16.40516107   1.38750969   
-9.920159699   -19.30800804   1.393098736   
-9.165630508   -16.24304   2.755079964   
-9.320549163   -18.0248832   2.797352815   
-9.366317801   -19.86286048   2.813977021   
-5.70898918   -13.34116548   1.720613244   
-9.215278579   -16.33102584   2.074174922   
-11.65170363   -22.51573356   2.551464296   
-10.65405146   -22.57226771   2.27771397   
-5.662203827   -13.21397619   1.175608479   
-9.235359417   -16.34993955   1.385229097   
-11.69655741   -22.59467751   1.63281777   
-9.202710911   -16.19248309   2.751280289   
-9.362072832   -17.96984686   2.793256067   
-9.344180539   -19.65934143   2.789192694   
-5.75382736   -13.33270562   1.721790675   
-9.233906368   -16.24737177   2.067138474   
-11.75752612   -22.55046   2.55947516   
-10.75063362   -22.59703062   2.283529954   
-5.714973225   -13.22490444   1.178135001   
-9.229258143   -16.22271112   1.376842247   
-11.78520495   -22.59585057   1.635507609   
-10.74117194   -22.55684444   1.366187601   
-9.240551121   -16.14356771   2.747773151   
-9.372040061   -17.85508123   2.779872681   
-9.39845131   -19.6180589   2.787413377   
-5.800648308   -13.32864826   1.723556879   
-9.243221263   -16.14823125   2.05812339   
-11.86413319   -22.5856302   2.567586397   
-10.84014775   -22.60614499   2.287801222   
-5.759899685   -13.21735941   1.179031574   
-9.259648007   -16.16057219   1.373973117   
-11.86329216   -22.5763721   1.636724497   
-10.81464614   -22.53278498   1.366733579   
-9.230746461   -16.01229614   2.730236988   
-9.3040546   -17.5941777   2.743683602   
-9.437461032   -19.54536361   2.781185406   
-5.852686889   -13.33625085   1.726853731   
-9.233647434   -16.01732696   2.045040171   
-11.91382276   -22.51218958   2.563380456   
-10.903384   -22.56022791   2.28652902   
-5.8192682   -13.24251143   1.182862245   
-9.266317822   -16.05780224   1.367646085   
-11.94510603   -22.56368314   1.638453747   
-10.94198926   -22.61994809   1.374050169   
-9.235125536   -15.90690277   2.717084865   
-9.347275849   -17.54544124   2.740542675   
-9.542953909   -19.60996625   2.794530886   
-5.893172273   -13.31732446   1.726736071   
-9.23134226   -15.90038758   2.033716004   
-12.01185475   -22.52996915   2.569589113   
-10.99609607   -22.57501727   2.291436389   
-5.86188742   -13.22915252   1.183269821   
-9.22684291   -15.87667962   1.354624377   
-12.02883267   -22.55422647   1.640439059   
-9.185516864   -15.71025638   2.688296298   
-9.260990688   -17.25569344   2.699710393   
-9.872116451   -20.12917716   2.872823971   
-5.940476037   -13.31369152   1.728619936   
-9.194795155   -15.72612501   2.015025895   
-12.11811187   -22.56225725   2.577499842   
-11.08329557   -22.57782784   2.295162157   
-5.912203838   -13.23294577   1.185225926   
-9.224126166   -15.76050344   1.34712039   
-12.13481206   -22.58578666   1.645434524   
-11.08982289   -22.57120417   1.375196843   
-9.169926452   -15.57373846   2.669737082   
-9.197045057   -17.01108618   2.665842795   
-9.96371076   -20.15926312   2.881466646   
-5.981293486   -13.29540379   1.728619936   
-9.220305297   -15.65929888   2.01007847   
-12.2028996   -22.5538514   2.580804323   
-11.15869301   -22.55621608   2.296434359   
-5.949498888   -13.2074749   1.184573852   
-9.242052417   -15.6805805   1.342706308   
-12.20309719   -22.54669609   1.645306493   
-11.18117142   -22.58181583   1.377926974   
-9.207571804   -15.52851316   2.666814545   
-9.204653324   -16.90101308   2.653005863   
-9.892846308   -19.86224195   2.843336839   
-6.01467189   -13.26071224   1.726500514   
-9.216596528   -15.54373356   1.998864215   
-12.28108284   -22.53290597   2.582706903   
-11.25494507   -22.57624109   2.301977829   
-5.990403216   -13.19006768   1.184655391   
-9.234632634   -15.5586742   1.334687219   
-12.30517357   -22.56960704   1.649725581   
-11.26109842   -22.56885012   1.379237323   
-9.197860313   -15.40421325   2.650301199   
-9.225490675   -16.81624028   2.644129301   
-9.76953135   -19.46478869   2.790717858   
-10.21265983   -22.3337328   2.911843302   
-9.189335582   -15.38993665   1.982702772   
-12.35590125   -22.50558932   2.583908533   
-11.32862619   -22.55050434   2.302886681   
-10.36757083   -22.64323707   2.036531293   
-9.301253973   -15.5619427   1.337409363   
-12.39357398   -22.56673759   1.652287388   
-11.32894013   -22.53151929   1.37907353   
-9.229783143   -15.3504874   2.645917158   
-9.231999742   -16.70635465   2.631292367   
-9.760711343   -19.29930079   2.771271724   
-10.2877822   -22.31672492   2.913727285   
-9.216533019   -15.3284509   1.978414934   
-9.240662565   -16.70962766   1.921709275   
-11.40405317   -22.52808191   2.304158883   
-10.43364903   -22.60408386   2.035879218   
-9.233242023   -15.3410789   1.320856319   
-12.46130037   -22.52598943   1.652095224   
-9.182047229   -15.16554288   2.618882159   
-9.228286099   -16.5792774   2.615724349   
-9.750067586   -19.13228254   2.751571197   
-10.3838221   -22.34449523   2.921498539   
-9.231085456   -15.2465377   1.971488635   
-9.242013163   -16.59167054   1.911395288   
-11.50026516   -22.54621479   2.309611515   
-10.52649461   -22.62257201   2.040443503   
-9.245116275   -15.25468344   1.315853582   
-12.55949542   -22.53995671   1.655937934   
-9.230591184   -15.14068046   2.619466762   
-9.247618673   -16.4947219   2.606847788   
-11.5476377   -22.48878887   3.239378231   
-10.44726981   -22.30174069   2.920085433   
-9.229700812   -15.13921981   1.961263936   
-9.207187756   -16.41051656   1.893771385   
-11.60944109   -22.5887706   2.317608551   
-10.58272922   -22.56219829   2.037916981   
-9.222779149   -15.11302567   1.306069002   
-12.63005273   -22.50392979   1.656129981   
-11.63220625   -22.61364712   1.390594511   
-9.203507583   -14.99257209   2.598715525   
-9.192480455   -16.27908699   2.577213551   
-11.66762572   -22.55192524   3.253613252   
-10.52666547   -22.29293059   2.923146964   
-9.192385317   -14.97445473   1.943563263   
-9.199729681   -16.27997721   1.881955361   
-11.694257   -22.58311562   2.320698218   
-10.68470169   -22.59900335   2.044192635   
-9.217412436   -15.00053913   1.298785672   
-9.224589915   -16.31865026   1.203014279   
-9.19432709   -14.87506736   2.583225231   
-9.220831395   -16.21291886   2.571204687   
-11.73859361   -22.51954093   3.254121561   
-10.61592175   -22.30446745   2.928916456   
-9.223651178   -14.92250957   1.940484803   
-9.20583068   -16.17471526   1.873043274   
-11.76532921   -22.55066364   2.321061806   
-10.77670888   -22.61380269   2.048512303   
-9.218788939   -14.90010251   1.29253231   
-9.264242881   -16.272061   1.20166936   
-9.19967084   -14.78211808   2.571973065   
-9.220305767   -16.09687478   2.55727532   
-11.83483643   -22.53523259   3.26162054   
-10.69289151   -22.28970133   2.931271318   
-9.195338886   -14.77515715   1.924982946   
-9.229680259   -16.10150944   1.867836212   
-11.86920941   -22.58057366   2.327877478   
-10.85941452   -22.6084846   2.051039063   
-9.235455491   -14.82519314   1.288485989   
-9.218313818   -16.07647851   1.189308669   
-11.89981552   -22.61962389   1.397638111   
-9.194026134   -14.67251024   2.557797889   
-9.186485197   -15.92435341   2.534332778   
-11.92664817   -22.54177784   3.267848272   
-10.76425044   -22.26304797   2.93209553   
-9.166210036   -14.62811969   1.909481088   
-9.266598732   -16.05157448   1.865332698   
-11.96918879   -22.60213838   2.333875373   
-10.92742179   -22.57237171   2.050794446   
-9.238502407   -14.72920113   1.282600508   
-9.269588703   -16.05157825   1.18956485   
-11.9803771   -22.60418484   1.398948579   
-9.202048322   -14.58566779   2.547568539   
-9.233306124   -15.89266806   2.53378656   
-12.01861029   -22.54797146   3.274076241   
-10.87948282   -22.32633117   2.944812062   
-9.207333392   -14.59404519   1.908711474   
-9.19527778   -15.81577153   1.84119997   
-12.05956914   -22.60485019   2.337964729   
-11.01410262   -22.57456919   2.054054581   
-9.225072484   -14.60803332   1.274507866   
-9.301230994   -15.99286955   1.187323357   
-12.05625392   -22.57965471   1.399712949   
-9.173024828   -14.44129612   2.527255753   
-9.191972008   -15.7103606   2.509205365   
-12.09383037   -22.52235366   3.275728483   
-10.91378415   -22.22332154   2.935627939   
-9.224884582   -14.5229407   1.903104346   
-9.221133135   -15.74884835   1.836693859   
-12.12650597   -22.56335854   2.337510304   
-11.10925556   -22.59344198   2.058863246   
-9.214731322   -14.49297974   1.266930327   
-9.236772243   -15.77050773   1.172913338   
-12.16993315   -22.62522088   1.404845505   
-9.183709264   -14.36058053   2.51804922   
-9.179780022   -15.57966624   2.492817665   
-9.240723548   -17.08305606   2.488729973   
-11.07309087   -22.37396574   2.960001232   
-9.249048342   -14.46275125   1.898926538   
-9.264353691   -15.71191276   1.835692501   
-12.18666381   -22.50941123   2.335783677   
-11.18515729   -22.5726489   2.060085856   
-9.263452913   -14.47136073   1.267518864   
-9.280042202   -15.73349946   1.172272827   
-12.21788295   -22.54826976   1.402388482   
-9.208979948   -14.30322542   2.512934427   
-9.22450212   -15.54631845   2.491998458   
-9.257496158   -16.9893026   2.479197522   
-11.13813514   -22.33277961   2.95905924   
-9.233112765   -14.34070861   1.886613052   
-9.273398144   -15.61754144   1.827982044   
-12.27569098   -22.50863631   2.339600519   
-11.2784003   -22.58637819   2.064487063   
-9.264048082   -14.37497103   1.261559711   
-9.240101937   -15.55651971   1.161193157   
-12.33292728   -22.59481879   1.407630233   
-9.233986259   -14.2458505   2.50781987   
-9.205590065   -15.40654371   2.47410872   
-9.209348066   -16.77822172   2.452506799   
-11.28954191   -22.4635403   2.980959895   
-9.220301223   -14.22473825   1.875069062   
-9.220676692   -15.42078771   1.80825529   
-12.38256875   -22.53982216   2.346779779   
-11.36690514   -22.58995401   2.067991816   
-9.235369084   -14.23437398   1.251701579   
-9.22887561   -15.42960717   1.153828049   
-12.42672442   -22.60149975   1.410414962   
-9.220080408   -18.23004386   3.186313236   
-9.240885923   -14.16111774   2.497882585   
-9.216552566   -15.3179615   2.464412713   
-9.216146586   -16.66916044   2.440686484   
-11.32296264   -22.35881145   2.971657994   
-9.189483172   -14.08234656   1.860006968   
-9.185826856   -15.25604432   1.792233443   
-9.206148702   -16.63667354   1.735093907   
-11.4370581   -22.55675168   2.068154656   
-9.233730372   -14.13667153   1.245595322   
-9.242702083   -15.34565505   1.149665142   
-12.50519764   -22.57986545   1.411452322   
-9.204894885   -16.54923   3.137024925   
-9.196108729   -18.04497366   3.158882226   
-9.139806578   -13.91276902   2.459010819   
-9.205497365   -15.19387329   2.448981071   
-9.261934856   -16.63127499   2.439288397   
-11.44566889   -22.43011114   2.985787394   
-9.229369395   -14.04910312   1.859347265   
-9.22381939   -15.21332666   1.790531134   
-9.24114559   -16.57964697   1.73209496   
-11.52706624   -22.56238423   2.071904026   
-9.188292081   -13.97328498   1.233677135   
-9.196070144   -15.16278332   1.138072993   
-12.58025071   -22.55185803   1.412107615   
-9.236818482   -16.48734421   3.13065128   
-9.21622223   -17.94811768   3.146861876   
-9.168804407   -13.86403408   2.455357294   
-9.208730832   -15.09452268   2.437509799   
-9.210041812   -16.41938335   2.41234352   
-11.52487298   -22.41520374   2.988495591   
-9.224728379   -13.94859534   1.849782269   
-9.216530297   -15.09663845   1.780117011   
-9.221766548   -16.42617084   1.719008879   
-11.61904056   -22.57122237   2.075979077   
-9.209649904   -13.91259698   1.230808005   
-9.207696996   -15.07743553   1.133782054   
-12.65622668   -22.52534337   1.412871985   
-9.201042382   -14.98951125   3.086715813   
-9.197179045   -16.29911685   3.100253388   
-9.237644805   -17.85481823   3.135457839   
-9.206909641   -13.82925161   2.454188326   
-9.191219749   -14.9623764   2.420712496   
-9.194506367   -16.27446377   2.395185012   
-11.71143759   -22.60723157   3.018873932   
-9.206338062   -13.8283925   1.837578695   
-9.206528724   -14.9767471   1.769302344   
-9.22996274   -16.3232502   1.711193518   
-11.71989612   -22.59651646   2.081602894   
-9.227402676   -13.84693198   1.227497326   
-9.226728904   -15.00491109   1.130451704   
-12.74297795   -22.51769363   1.414837628   
-9.156883746   -14.81542875   3.056638595   
-9.241779289   -16.26138815   3.098455711   
-9.259039408   -17.76243365   3.124208059   
-9.185958408   -13.70643567   2.437382679   
-9.24072791   -14.94000495   2.421668553   
-9.241938926   -16.24186915   2.394549626   
-11.78671382   -22.58264114   3.02040458   
-9.210538208   -13.74311246   1.829992692   
-9.237247872   -14.92389644   1.766398406   
-9.2272658   -16.20226247   1.701469854   
-11.7965519   -22.57458776   2.082906806   
-9.251506738   -13.79122641   1.225069627   
-9.277447385   -14.9841695   1.131028081   
-9.176272987   -14.74545432   3.047995683   
-9.217621268   -16.10367126   3.073777722   
-9.168318798   -17.45752016   3.075510348   
-9.203068152   -13.64128576   2.430806618   
-9.228390078   -14.81824561   2.406510138   
-9.232048713   -16.10930781   2.379170437   
-11.85917641   -22.55252447   3.021228792   
-9.230979249   -13.68265584   1.825704854   
-9.199316566   -14.7612247   1.750476813   
-9.260083437   -16.14450648   1.698380069   
-11.86807565   -22.54270013   2.083314501   
-9.222335519   -13.65698694   1.215652809   
-9.214091895   -14.78033509   1.117770816   
-9.194529877   -13.5373266   3.037126819   
-9.186429483   -14.66131139   3.036414262   
-9.205886493   -15.96933205   3.053512618   
-9.186253818   -17.3620634   3.063644018   
-9.171512667   -13.50495954   2.411516885   
-9.168029754   -14.62116721   2.379061007   
-9.212012098   -15.96063821   2.361376543   
-11.96550081   -22.58623654   3.030648472   
-9.173516383   -13.50791108   1.806135099   
-9.209657178   -14.67730762   1.74386785   
-9.216419949   -15.95476509   1.681386189   
-11.98388011   -22.59423164   2.09146484   
-9.235037119   -13.58574072   1.211827145   
-9.240294799   -14.72156814   1.115465308   
-9.211602487   -13.47334189   3.029097836   
-9.130465616   -14.47311614   3.003225679   
-9.189451759   -15.82839271   3.031939791   
-9.211125565   -17.28061162   3.054243649   
-9.202852793   -13.4620583   2.408886413   
-9.191161504   -14.5586277   2.373461749   
-9.232522607   -15.88342101   2.354131955   
-12.02445114   -22.53014617   3.028058054   
-9.197526693   -13.45426697   1.802726906   
-9.222758471   -14.59851391   1.737859702   
-9.232774754   -15.87046316   1.675479249   
-12.055491   -22.56175522   2.091872298   
-9.242320728   -13.50713808   1.207339511   
-9.24010075   -14.62144343   1.110021497   
-9.183218997   -13.3437751   3.00628833   
-9.170073056   -14.43755382   3.001669999   
-9.209586361   -15.75158059   3.022624538   
-9.200527949   -17.13388398   3.033284989   
-9.208781143   -13.38241887   2.399679881   
-9.193271199   -14.46347752   2.362536694   
-9.24863833   -15.79938053   2.345870513   
-12.09398696   -22.49402506   3.028175833   
-9.224110814   -13.40469715   1.799868386   
-9.227452919   -14.50718439   1.730349516   
-9.24215509   -15.77504068   1.668390945   
-12.1454379   -22.56327662   2.095458589   
-9.224883036   -13.39330119   1.199688301   
-9.219558904   -14.49030642   1.102208043   
-9.17484438   -13.24441518   2.990230601   
-9.172935212   -14.34462821   2.988186952   
-9.239348051   -15.69179658   3.016577528   
-9.229544728   -17.062124   3.025579776   
-9.228952462   -13.32401415   2.394273023   
-9.21998072   -14.4076695   2.358030343   
-9.250220768   -15.69146601   2.334050197   
-12.20124795   -22.52754439   3.037713054   
-9.241422199   -13.34201738   1.795250814   
-9.20430847   -14.37323254   1.717732286   
-9.219156036   -15.62567579   1.655577496   
-12.23028236   -22.55482192   2.098148189   
-9.261384054   -13.3583801   1.199099765   
-9.205835633   -14.37119834   1.095291163   
-9.169320134   -13.15007082   2.97526745   
-9.18491048   -14.26672892   2.977815506   
-9.226059689   -15.55984827   2.996639297   
-9.224169803   -16.9278786   3.0067788   
-9.27431302   -13.30212963   2.39544199   
-9.215852033   -14.30436681   2.345739627   
-9.209203286   -15.51289975   2.311680813   
-9.208316571   -16.87774586   2.279668333   
-9.281175289   -13.31197159   1.795030874   
-9.205770517   -14.27886317   1.709821558   
-9.226357697   -15.52882618   1.648307399   
-12.30706608   -22.53118978   2.099452102   
-9.307459813   -13.3372646   1.199761854   
-9.228788572   -14.3101788   1.092793489   
-9.185333507   -13.08727324   2.967421096   
-9.221672501   -14.22773879   2.975568411   
-9.170576713   -15.35867204   2.963299559   
-9.222812426   -16.80249024   2.989518726   
-9.315647963   -13.27442312   2.39558814   
-9.200935181   -14.18543458   2.330854203   
-9.226724952   -15.4343427   2.30418207   
-9.249531226   -16.83027019   2.277077916   
-9.330535555   -13.29563887   1.796680015   
-9.199697397   -14.17377091   1.700609064   
-9.249925129   -15.46028188   1.644036249   
-12.3790163   -22.49856572   2.099941099   
-9.359799151   -13.32496794   1.201233253   
-9.232977779   -14.22069708   1.088118221   
-9.176653237   -12.98997   2.951728146   
-9.175393126   -14.061626   2.946701166   
-9.224261554   -15.34145601   2.965424107   
-9.170096549   -16.58561521   2.955923405   
-9.356329491   -13.24578125   2.395588141   
-9.232496409   -14.13889122   2.327849889   
-9.22083177   -15.31758361   2.290963668   
-9.220803129   -16.65672382   2.257414581   
-9.381031485   -13.28075118   1.798549097   
-9.224089218   -14.11632825   1.697104311   
-9.199668399   -15.26975813   1.626769856   
-12.51368845   -22.57903914   2.111025655   
-9.403514275   -13.30026226   1.201601133   
-9.220324911   -14.10626461   1.081521655   
-9.216462383   -12.96175492   2.951728145   
-9.200644855   -14.0062436   2.940997   
-9.205882711   -15.20506144   2.94450526   
-9.194978004   -16.5107893   2.947601642   
-9.406667773   -13.23071988   2.398072462   
-9.216515833   -14.02027032   2.312964463   
-9.217394071   -15.20609668   2.278507966   
-9.258804298   -16.60493809   2.25423527   
-9.43958583   -13.27702071   1.801957291   
-9.242748308   -14.05055643   1.6925982   
-9.236141445   -15.22443344   1.624952272   
-9.275523265   -16.61582787   1.556148969   
-9.465669497   -13.30141375   1.204323158   
-9.230096558   -14.02705727   1.077614928   
-9.274496098   -12.95900407   2.957567256   
-9.184896979   -13.88922257   2.922328349   
-9.202160658   -15.09419603   2.928489253   
-9.222386424   -16.44113733   2.940204466   
-9.4362759   -13.18651346   2.39529584   
-9.225590952   -13.94070928   2.304497505   
-9.178219112   -15.03720452   2.257409354   
-9.211963469   -16.40242154   2.230568412   
-9.480274849   -13.24799803   1.801957291   
-9.186376896   -13.87198233   1.674473619   
-9.219469818   -15.09234562   1.613865451   
-9.281028271   -16.50649776   1.548569047   
-9.519209091   -13.29014764   1.205941663   
-9.239469391   -13.9479236   1.073708201   
-9.349264741   -12.97915398   2.968698304   
-9.156509876   -13.75439378   2.899856922   
-9.183911047   -14.96079553   2.908060596   
-9.270840258   -16.40932646   2.939588155   
-9.393432283   -13.0419082   2.374252538   
-9.224378607   -13.84638557   2.293572688   
-9.235216252   -15.02672077   2.260078449   
-9.241217953   -16.33691489   2.225505591   
-9.505770746   -13.19788026   1.79909877   
-9.238826221   -13.85863537   1.676276063   
-9.244859765   -15.03005938   1.610230402   
-9.215225833   -16.27240538   1.529252731   
-9.598429097   -13.31427352   1.210797177   
-9.219652944   -13.82569169   1.066471125   
-9.379229622   -12.9368775   2.96559624   
-9.157540577   -13.66487141   2.886892672   
-9.191901566   -14.87128811   2.896130131   
-9.225362624   -16.21248919   2.909383143   
-9.431657532   -13.01062538   2.373814086   
-9.166394807   -13.66828082   2.268718266   
-9.251001096   -14.94939708   2.252706785   
-9.229848516   -16.20063346   2.2107873   
-9.561968146   -13.19038334   1.802067202   
-9.249698028   -13.78313387   1.670568323   
-9.296171324   -15.01009268   1.611139135   
-9.241403115   -16.20250071   1.525340521   
-9.636888931   -13.28153486   1.210502968   
-9.228653496   -13.74762656   1.062628414   
-9.425250424   -12.91677793   2.967603486   
-9.185098509   -13.61548271   2.882398244   
-9.223408518   -14.82040284   2.89171748   
-9.251476106   -16.14296103   2.901985968   
-9.565405518   -13.11029367   2.397341946   
-9.201633451   -13.63024148   2.267079377   
-9.166737655   -14.71216629   2.22118618   
-9.247877728   -16.11711434   2.203251603   
-9.617621823   -13.1818614   1.804925721   
-9.270218941   -13.7225366   1.666663026   
-9.228358254   -14.79897555   1.591509895   
-9.210147013   -16.03320342   1.51205548   
-9.718173385   -13.30747882   1.215579138   
-9.22888103   -13.65723446   1.057825113   
-9.499753527   -12.93534812   2.978552142   
-9.209120986   -13.56116467   2.876866933   
-9.192352316   -14.66998184   2.867857024   
-9.184888371   -15.91340371   2.865770902   
-9.679943522   -13.18215203   2.415900926   
-9.201091011   -13.53967683   2.256700541   
-9.186002026   -14.64280245   2.214958211   
-9.241135002   -15.99150887   2.189946415   
-9.710376165   -13.22359446   1.814710657   
-9.197018305   -13.52454272   1.64603505   
-9.211762052   -14.67191457   1.580877498   
-9.262287562   -16.01004649   1.512544476   
-9.763679667   -13.28403027   1.216167793   
-9.2555824   -13.60657741   1.056095864   
-9.570952022   -12.9488392   2.988405745   
-9.220111338   -13.48812525   2.867359752   
-9.211522106   -14.60082653   2.859848784   
-9.193447051   -15.81595724   2.853288259   
-9.649195786   -13.05612791   2.398218612   
-9.198960542   -13.44760938   2.246048713   
-9.226115411   -14.6070034   2.213814515   
-9.280662387   -15.94677429   2.187709096   
-9.766849756   -13.21532369   1.817679088   
-9.203061156   -13.44453764   1.639726377   
-9.21735384   -14.58129276   1.574152664   
-9.242121237   -15.8627138   1.50129696   
-9.825146524   -13.28207486   1.218742595   
-9.227934661   -13.47683809   1.048218395   
-9.646430477   -12.96753655   2.999536793   
-9.090602407   -13.21148227   2.814465399   
-9.154713402   -14.41260616   2.828470513   
-9.224455926   -15.75783293   2.847894515   
-9.780129104   -13.14870328   2.420723418   
-9.169946783   -13.31733508   2.228978419   
-9.217127714   -14.49409334   2.200977344   
-9.209533746   -15.71346613   2.159568073   
-9.850651709   -13.24351493   1.825704854   
-9.240877421   -13.41132384   1.639125562   
