X     Y     Z
0.261438115   9.84378464   0.991045689   
-0.098755802   9.880451431   0.90167083   
-0.456799403   9.889408924   0.80957564   
0.624888678   9.876360759   0.730024324   
0.263225051   9.859197059   0.632953072   
-0.095550468   9.905739348   0.541702836   
-0.453350206   9.927507976   0.449189624   
0.628248507   9.88020703   0.368040186   
0.255644172   9.390947938   0.259128303   
-0.087048568   9.434059101   0.170444118   
-0.428451854   9.403890139   0.081658711   
0.601734293   9.408775633   0.006417436   
0.2580825   9.408082078   -0.08443385   
-0.083408173   9.432059248   -0.172218902   
-0.42287297   9.407837257   -0.262721044   
0.605219882   9.401447239   -0.338863303   
0.262678435   9.419679358   -0.426757779   
-0.078996741   9.416446036   -0.517742092   
-0.419444849   9.401066017   -0.607389983   
0.609970415   9.398479607   -0.683205197   
0.263357994   9.286986695   -0.76302003   
-0.065425856   8.3737225   -0.766660253   
-0.339444397   7.668117423   -0.77844368   
0.454347405   6.927659458   -0.759841573   
0.189176227   6.538158749   -0.777986235   
-0.048479153   6.449688469   -0.829565827   
-0.265447949   6.039467761   -0.837241415   
0.358157624   5.419004259   -0.797015976   
0.160028721   5.422749144   -0.848094492   
-0.037919833   5.422630818   -0.900358309   
-0.23718425   5.409325497   -0.954434204   
0.144137475   4.782344226   -0.929669017   
-0.028985341   4.579310448   -0.93560257   
-0.189875143   4.325199296   -0.929399998   
-0.023176502   3.723188927   -0.906394148   
-0.156188127   3.583530527   -0.911764627   
0.896410852   13.58891179   2.527472058   
0.393034136   13.5609639   2.380938647   
-0.106120941   13.5755692   2.248950288   
-0.598750432   13.56759989   2.118198717   
0.891455034   13.52456763   2.002193193   
0.395848649   13.50343996   1.862307215   
-0.072029752   9.875986424   1.265527029   
-0.432921349   9.927954676   1.17827809   
0.657710978   9.978356914   1.106131355   
0.293729352   9.913548285   0.998155331   
-0.068283884   9.85780351   0.899580732   
-0.426886301   9.900720975   0.810390673   
0.653733409   9.852505669   0.72840582   
0.294570099   9.89525128   0.635322715   
-0.065192474   9.910977969   0.541975884   
-0.420722885   9.87795005   0.446886798   
0.658823477   9.882221513   0.36818878   
0.284817209   9.402109614   0.259459169   
-0.05809256   9.432281727   0.170407997   
-0.399641562   9.406159672   0.081667384   
0.630664047   9.407882553   0.006418116   
0.287005849   9.40924458   -0.084451791   
-0.05444176   9.427271301   -0.172127617   
-0.394049953   9.410088958   -0.26274891   
0.634396588   9.404531153   -0.339043011   
0.29160728   9.419828299   -0.42680302   
-0.050117748   9.418641105   -0.517851884   
-0.390766498   9.406297182   -0.607647595   
0.63812517   9.386612949   -0.682481715   
0.291567058   9.277169925   -0.762283376   
-0.039711706   8.368904521   -0.766204397   
-0.315958281   7.670116806   -0.778544532   
0.475871404   6.93019969   -0.760276746   
0.209583536   6.548464719   -0.779285437   
-0.02869156   6.449806855   -0.829565827   
-0.247322469   6.050151053   -0.838613276   
0.375122623   5.422815349   -0.79774202   
0.176825596   5.427170182   -0.848866731   
-0.021306488   5.42864078   -0.90134107   
-0.220908517   5.417899898   -0.955822935   
0.15900432   4.787765861   -0.930813484   
-0.014948861   4.583297029   -0.936403241   
-0.176285658   4.317946156   -0.927720875   
-0.011735407   3.717412808   -0.904974904   
-0.146095583   3.606265744   -0.917430824   
0.931594943   13.49193451   2.509954256   
0.43387941   13.5360668   2.376790162   
-0.064522715   13.58668333   2.250747965   
-0.556514798   13.55456384   2.115887011   
0.933488374   13.52966419   2.003362396   
0.439711719   13.5774105   1.872685934   
-0.041839283   9.901949486   1.268831629   
-0.400570528   9.882601605   1.172744038   
0.689415728   9.992157801   1.107890408   
0.323849651   9.903650057   0.997254108   
-0.038136318   9.882862646   0.901852623   
-0.396868207   9.910947244   0.811124169   
0.688585724   9.917110998   0.733334944   
0.323420198   9.848420214   0.632376637   
-0.034701608   9.887167172   0.540665416   
-0.534084984   13.51464136   0.611336817   
0.688790931   9.875169868   0.368003052   
0.313827807   9.406186901   0.259597034   
-0.029142094   9.428416264   0.170335742   
-0.370900114   9.410338917   0.081693401   
0.659873799   9.410891408   0.00642152   
0.316005863   9.412317749   -0.084487673   
-0.025513631   9.425394426   -0.172091109   
-0.365294645   9.414250372   -0.262832565   
0.663386889   9.404535153   -0.339114924   
0.320369632   9.414895567   -0.42662206   
-0.021214778   9.415755454   -0.517687196   
-0.361906559   9.407451843   -0.607647595   
0.667414832   9.391575279   -0.682988176   
0.319993277   9.275235725   -0.76220148   
-0.014116248   8.416787037   -0.770580629   
-0.292501013   7.673038364   -0.778746353   
0.497557565   6.934656301   -0.760929536   
0.229638149   6.54679871   -0.77916736   
-0.008874945   6.429035929   -0.826886954   
-0.229096479   6.05979004   -0.839847986   
0.392399571   5.430520254   -0.799048793   
0.193545492   5.428576619   -0.84917566   
-0.004646481   5.422761722   -0.90035831   
-0.204434013   5.422488376   -0.956517328   
0.173834599   4.79117949   -0.931576424   
-8.87434E-4   4.583321046   -0.936403239   
-0.162890004   4.314558207   -0.926881341   
-3.30662E-4   3.719374744   -0.905447987   
-0.134922253   3.60379147   -0.916691727   
0.977227466   13.54785264   2.520902912   
0.475889493   13.54845308   2.379210111   
-0.022678195   13.49112084   2.234895275   
-0.516014967   13.58484126   2.120356168   
0.974494584   13.51982951   2.002339343   
0.480486985   13.5512476   1.869271899   
-0.015614891   13.49167852   1.728803772   
-0.371215762   9.909585178   1.175805334   
0.721640027   10.01180516   1.110309164   
0.353769694   9.889683904   0.995952343   
-0.007796253   9.858037438   0.899580733   
-0.36564988   9.890206252   0.809331082   
0.721965128   9.955733922   0.736351297   
0.35431368   9.866329782   0.633593524   
-0.00437422   9.901206257   0.541429846   
-0.360759942   9.898314743   0.447699566   
0.717632491   9.853076373   0.367260051   
0.34282969   9.409175549   0.259707332   
-2.15982E-4   9.428461324   0.170335742   
-0.342173117   9.415430333   0.081728099   
0.68874289   9.408822403   0.00642152   
0.345064068   9.416300228   -0.084532525   
0.003401748   9.421429463   -0.172018094   
-0.336838727   9.427313837   -0.263167215   
0.691869634   9.397471926   -0.338935187   
0.349289656   9.41486613   -0.426667299   
0.007678148   9.422765583   -0.518071468   
-0.332972587   9.406523181   -0.607518789   
0.695487111   9.379536907   -0.682264636   
0.34769943   9.254291434   -0.760564439   
0.011628598   8.36102468   -0.765475016   
-0.268715138   7.666940044   -0.778040039   
0.51949807   6.942018726   -0.761908721   
0.249116717   6.530187164   -0.777277596   
0.010710182   6.346711017   -0.816298905   
-0.210332311   6.055514408   -0.839162055   
0.40905834   5.4292911   -0.799048794   
0.210466842   5.434868217   -0.850256771   
0.011981614   5.418804282   -0.899703193   
-0.187763001   5.422105785   -0.956343758   
0.188571527   4.791604734   -0.93176716   
0.013112045   4.56174763   -0.931999469   
-0.148805149   4.290609465   -0.921634047   
0.01110627   3.728102702   -0.907576766   
-0.123898628   3.605157103   -0.916938074   
1.012445011   13.4604721   2.505209962   
0.517265371   13.54200854   2.378345845   
0.018759982   13.52565714   2.240615413   
-0.472404274   13.53106226   2.11172613   
1.015597573   13.51184444   2.001608828   
0.52339427   13.584356   1.874051596   
0.018878927   9.881189801   1.266162533   
-0.339071282   9.860061631   1.169800402   
0.751011453   9.991703816   1.108330171   
0.524143335   13.49360761   1.359045361   
0.022416068   9.844072172   0.898308471   
-0.336960005   9.940091018   0.813324773   
0.743107622   9.829165645   0.727155135   
0.521729298   13.38328136   0.859542931   
0.025947208   9.880204943   0.540283231   
-0.330290685   9.896379911   0.447564115   
0.748236187   9.855811288   0.367445809   
0.37169501   9.408079112   0.259707332   
0.028713176   9.429417601   0.170353802   
-0.313551402   9.424430363   0.081797494   
0.717529472   9.405668571   0.006420839   
0.374229047   9.422191465   -0.084595326   
0.032319983   9.425373778   -0.172091109   
-0.30840396   9.443289328   -0.26358552   
0.720238818   9.389326733   -0.338719507   
0.378292733   9.41674545   -0.42680302   
0.036575118   9.419702507   -0.51790678   
-0.303757539   9.396528391   -0.606810268   
0.723722214   9.370398157   -0.681758175   
0.37608954   9.253181161   -0.760564439   
0.037590617   8.430657597   -0.771857005   
-0.245255647   7.669717068   -0.77824186   
0.54148845   6.949311979   -0.762887906   
0.268454597   6.512525117   -0.775269752   
0.029252394   6.151260274   -0.791168276   
-0.191283043   6.041280475   -0.837104265   
0.426409463   5.436887688   -0.800355624   
0.22718106   5.435184054   -0.850411265   
0.028606214   5.418742086   -0.899703193   
-0.171065201   5.42068794   -0.955996562   
0.202813345   4.780215339   -0.929669017   
0.027142161   4.56756417   -0.933200501   
-0.135455699   4.285182457   -0.920374663   
-0.11283758   3.605520361   -0.916938075   
1.054810986   13.47102575   2.507764617   
0.55880918   13.54035761   2.378345844   
0.060427428   13.56401047   2.246989057   
-0.432210019   13.57392524   2.118198716   
1.056043286   13.49584322   1.999708872   
0.56350329   13.54507428   1.868862176   
0.049016128   9.845378041   1.261586923   
-0.30810449   9.83822751   1.167092208   
0.780188791   9.970525268   1.106241266   
0.411944821   9.827681027   0.989944195   
0.052590536   9.838978437   0.897854047   
-0.305357089   9.905214617   0.810390674   
0.772790196   9.820874416   0.726713763   
0.415097267   9.869952331   0.633977736   
0.077142377   13.5475395   0.740835039   
-0.299473564   9.882369157   0.446886798   
0.777446671   9.840518397   0.366962862   
0.400769479   9.411887879   0.259845198   
0.057654311   9.431285095   0.170389937   
-0.284424883   9.418351351   0.081736779   
0.746303108   9.402425548   0.006420158   
0.403433422   9.427992561   -0.08465812   
0.061268949   9.43022931   -0.172182379   
-0.279430919   9.444191499   -0.26358552   
0.748802957   9.384084023   -0.338611682   
0.407008453   9.41154801   -0.42662206   
0.065474187   9.419545732   -0.51790678   
-0.274840411   9.394423803   -0.60661703   
0.752067515   9.363162437   -0.681396434   
0.404954965   9.262936551   -0.761464827   
0.063342902   8.415564633   -0.770489435   
-0.22175287   7.671427857   -0.77834277   
0.562244286   6.940682178   -0.762126337   
0.288213762   6.506711012   -0.774679191   
0.048131818   6.152133373   -0.79129583   
-0.173087477   6.053720781   -0.838750486   
0.44356993   5.441471104   -0.801226866   
0.243722036   5.431500621   -0.849947899   
0.045238781   5.419615406   -0.899866987   
-0.154433963   5.42118694   -0.955996561   
0.217344022   4.776628861   -0.929096813   
0.041102154   4.561581327   -0.931999469   
-0.122670913   4.298282907   -0.923103243   
-0.101365303   3.591317612   -0.913242764   
1.100281995   13.51868445   2.517253201   
0.599780602   13.52578768   2.376098748   
0.101565953   13.50062342   2.236529633   
-0.390734278   13.58111362   2.119123305   
1.09968845   13.52014854   2.003800848   
0.604614203   13.53338567   1.867496634   
0.079676023   9.901717417   1.268831629   
-0.279994652   9.912582383   1.175805334   
0.80932386   9.950253155   1.104262274   
0.446476252   9.923779778   0.999757504   
0.082851254   9.847733459   0.898671942   
-0.273998954   9.87123417   0.807537996   
0.805842749   9.85424013   0.729362235   
0.443126285   9.81878577   0.630775536   
0.118460313   13.51928259   0.739306181   
-0.268337601   9.853283175   0.445532193   
0.806652198   9.82613481   0.366517049   
0.429414915   9.405621534   0.259707332   
0.086607168   9.433063402   0.170426058   
-0.255582691   9.421179162   0.081754124   
0.774899294   9.397102061   0.006418116   
0.432356194   9.42671022   -0.08465812   
0.090248012   9.434995655   -0.172273663   
-0.250455238   9.445003527   -0.26358552   
0.777589414   9.381742844   -0.338611682   
0.435880785   9.410255367   -0.42662206   
0.094372636   9.419300722   -0.51790678   
-0.246017439   9.395222654   -0.60661703   
0.779960708   9.350871739   -0.680672952   
0.432532842   9.243730258   -0.759991518   
0.088981837   8.398402648   -0.768939535   
-0.198113429   7.668093682   -0.777939128   
0.582868928   6.930999966   -0.761255931   
0.30873855   6.517698712   -0.776096528   
0.067114092   6.161874182   -0.792571488   
-0.15453939   6.05521335   -0.838887636   
0.460762488   5.445999646   -0.802098048   
0.260100592   5.424805925   -0.849021166   
0.061899493   5.422410343   -0.90035831   
-0.137926384   5.426557745   -0.956864524   
0.232473772   4.785744325   -0.93100422   
0.055096697   4.561433493   -0.931999468   
-0.109732326   4.308413088   -0.925202161   
-0.09044431   3.595487097   -0.914228148   
1.138771983   13.47997596   2.510684292   
0.641507516   13.52880299   2.376963016   
0.14352812   13.55154706   2.245028064   
-0.347923851   13.53780061   2.112188424   
1.134920767   13.44277926   1.992840746   
0.646272945   13.53443573   1.867906238   
0.109965491   9.893491581   1.267814892   
0.841937451   9.972483891   1.107010882   
0.47601228   9.903480167   0.997854923   
0.11306328   9.847432841   0.898671941   
-0.243122821   9.848115572   0.80558195   
0.835312401   9.842777879   0.728700088   
0.473151735   9.815387303   0.630647446   
0.159581961   13.48890231   0.737668126   
-0.2385654   9.873035311   0.446390112   
0.841120158   9.874394727   0.368411672   
0.458122971   9.4012649   0.259624601   
0.115522502   9.430753764   0.170389937   
-0.226822017   9.427917495   0.081806166   
0.804663191   9.405640683   0.006425604   
0.460737226   9.414353316   -0.084559437   
0.119193748   9.434674605   -0.172273663   
-0.221406892   9.442729923   -0.263501865   
0.805512496   9.369356112   -0.338252207   
0.464551838   9.404882407   -0.4264411   
0.123309395   9.421962013   -0.518071468   
-0.217076845   9.390945552   -0.606294987   
0.808043443   9.341479707   -0.680166492   
0.459500285   9.214488902   -0.757699661   
0.114516068   8.381162913   -0.767389636   
-0.17442862   7.661702955   -0.777232872   
0.603180407   6.91828599   -0.760059189   
0.328633055   6.514737464   -0.775860257   
0.086031981   6.162631348   -0.792699043   
-0.136050466   6.059620315   -0.839436416   
0.477468432   5.444560532   -0.802098048   
0.276692093   5.422995911   -0.848866731   
0.078549209   5.423181068   -0.900522102   
-0.121277295   5.426955573   -0.956864525   
0.247661496   4.79481206   -0.932911629   
0.068957165   4.552426454   -0.930197919   
-0.096491885   4.307751916   -0.924992292   
-0.078942296   3.57443088   -0.908808298   
1.188871283   13.57632345   2.529296677   
0.682215613   13.51103245   2.37419736   
0.18486046   13.53328589   2.242086217   
-0.307238276   13.57634095   2.118044462   
1.184005799   13.52891406   2.006138783   
0.687843241   13.53337861   1.868042851   
0.140148975   9.881206399   1.266289611   
-0.219035239   9.908156266   1.175098898   
0.872181994   9.965893126   1.106571119   
0.507918019   9.931784063   1.000858998   
0.14394071   9.892844194   0.902852253   
-0.214006654   9.899633886   0.8097386   
0.865942556   9.845135772   0.729067967   
0.503620442   9.820865136   0.631095732   
0.201410843   13.51830069   0.73930618   
-0.208505983   9.884706468   0.446886798   
0.867807745   9.830955496   0.366888565   
0.486342873   9.387835465   0.259293736   
0.144470412   9.431354245   0.170407997   
-0.198190272   9.442565107   0.08192761   
0.832720846   9.394163089   0.006419478   
0.489877601   9.417888898   -0.084604297   
0.147949989   9.422268098   -0.172054601   
-0.192517425   9.447362332   -0.263613415   
0.834164842   9.365845678   -0.338216265   
0.493089356   9.397427078   -0.42616966   
0.152214992   9.421539578   -0.518071468   
-0.18846481   9.401544317   -0.606939075   
0.836609871   9.337962759   -0.680094132   
0.487240869   9.203082661   -0.756881169   
0.140111943   8.373801789   -0.766751389   
-0.150569352   7.644297263   -0.775416659   
0.623151247   6.90254216   -0.758535992   
0.348406157   6.509731986   -0.77538783   
0.105073362   6.170271629   -0.793719593   
-0.117113645   6.042182861   -0.836967056   
0.494169821   5.44306988   -0.802098047   
0.292954707   5.415215382   -0.847785561   
0.095065736   5.416010033   -0.899375605   
-0.104608075   5.426317195   -0.956690955   
0.082709352   4.540438182   -0.927795852   
-0.083218752   4.30509513   -0.924362628   
-0.067496639   3.549462152   -0.902403063   
1.227232524   13.53638177   2.522545139   
0.725033546   13.53444773   2.378691551   
0.226098599   13.51588632   2.239307926   
-0.26548861   13.57228016   2.117273893   
1.22131069   13.4789123   1.999270657   
0.729253211   13.52922631   1.867769743   
0.233923117   13.55910244   1.737700719   
-0.187785847   9.864103325   1.169800403   
0.90284252   9.964159869   1.106681029   
0.537954984   9.922230399   1.000057911   
0.173782099   9.863480303   0.900216834   
-0.184835427   9.965016217   0.815036379   
0.897499388   9.857330311   0.730171487   
0.533856377   9.821267015   0.631223823   
0.242811695   13.5136257   0.739087789   
-0.180177515   9.996168654   0.451898863   
0.899328439   9.843174104   0.367445808   
0.515799406   9.398276954   0.259624601   
0.173331194   9.426868284   0.170335742   
-0.16941704   9.454126133   0.082023023   
0.861446496   9.390568065   0.006418797   
0.51865893   9.414343904   -0.084586356   
0.176762585   9.41677142   -0.171963317   
-0.163567025   9.449907605   -0.263669175   
0.862528111   9.359262004   -0.338072469   
0.521807134   9.393875592   -0.426079181   
0.181099958   9.420029456   -0.518016572   
-0.159671217   9.405072041   -0.607132313   
0.865990803   9.34329731   -0.680672952   
0.514860054   9.19059922   -0.755980782   
0.16562432   8.364371644   -0.765930871   
-0.127215513   7.650691918   -0.776022064   
0.644140201   6.898618612   -0.758318435   
0.367927206   6.500701017   -0.774442976   
0.123943201   6.166945578   -0.793336931   
-0.09830126   6.025676638   -0.834634905   
0.509201957   5.423796979   -0.799484443   
0.309397789   5.411332006   -0.847322195   
0.111620353   5.412734242   -0.898884226   
-0.087927952   5.424643563   -0.956343759   
0.096659683   4.541142791   -0.927996006   
-0.069851537   4.295554196   -0.92226371   
-0.056405823   3.537054921   -0.899200446   
-0.233790699   13.55871685   2.62783458   
1.263616207   13.4777342   2.512326519   
0.76594045   13.52134248   2.376790162   
0.268520524   13.56346102   2.24731593   
-0.223554913   13.55524792   2.114500129   
1.266072487   13.51154494   2.004677514   
0.770644124   13.52494666   1.867496633   
0.200292623   9.856359858   1.263239283   
-0.158505356   9.926193831   1.177100543   
0.930996918   9.935613549   1.10382251   
0.568734879   9.926493064   1.000658725   
0.205010109   9.909696507   0.904487984   
-0.152920238   9.87883631   0.807945513   
0.9299804   9.878360137   0.731937155   
0.564328422   9.825561291   0.631608094   
0.207574067   9.867072084   0.539682596   
-0.147940274   9.891792864   0.44715773   
0.929240711   9.837383977   0.367334348   
0.544630495   9.39665015   0.259624601   
0.202187264   9.423293541   0.170281561   
-0.140322296   9.448602542   0.08197098   
0.891385169   9.399827116   0.006426965   
0.547771561   9.416701656   -0.084622238   
0.205521013   9.410187056   -0.171853793   
-0.134474717   9.443367681   -0.26347397   
0.890384989   9.347617632   -0.337748965   
0.55039082   9.388241737   -0.425898221   
0.209977099   9.418431098   -0.517961675   
-0.130816106   9.405516992   -0.607132313   
0.89503194   9.34456775   -0.680962333   
0.543406795   9.19494572   -0.756471865   
0.190897994   8.346899616   -0.764380972   
-0.103702457   7.648061927   -0.775719332   
0.666733604   6.911452043   -0.759950352   
0.387573565   6.494585877   -0.773852415   
0.142793637   6.163561323   -0.792954209   
-0.079656864   6.014064162   -0.832988684   
0.525744011   5.421224305   -0.799339245   
0.325938644   5.409371199   -0.84716776   
0.128109045   5.407435193   -0.898065258   
-0.071284971   5.424887729   -0.956343759   
0.11068668   4.544742708   -0.928796733   
-0.056737124   4.300636376   -0.923313168   
-0.045641391   3.543995057   -0.900924929   
-0.191969433   13.54366364   2.624790689   
1.304864476   13.47281516   2.512143892   
0.80900524   13.54547484   2.381457442   
0.309026276   13.5142449   2.239307926   
-0.181489513   13.52030326   2.10895213   
1.309330351   13.52630616   2.007454137   
0.812193844   13.5235075   1.867633128   
0.230623351   9.85966573   1.26374771   
-0.127257324   9.86506911   1.169800402   
0.961953402   9.937657729   1.104372303   
0.596188259   9.875043478   0.995651935   
0.320181606   13.47718391   1.230187253   
-0.123291952   9.9340715   0.812428258   
0.960958018   9.882409287   0.73245214   
0.595374362   9.838725191   0.632568801   
0.238759245   9.904321528   0.541757434   
-0.117378243   9.874220014   0.446344961   
0.954080461   9.779784036   0.36529113   
0.572908297   9.385955312   0.259376467   
0.231096561   9.422628915   0.170281561   
-0.111369075   9.451988634   0.081996998   
0.918854795   9.383115206   0.006417436   
0.576475623   9.411982647   -0.084595326   
0.234539482   9.415509775   -0.171963317   
-0.105435239   9.437738972   -0.26330666   
0.918569827   9.339869471   -0.337569227   
0.578391118   9.373546522   -0.425310072   
0.23884612   9.416744504   -0.51790678   
-0.101948952   9.404876163   -0.607067939   
0.923892729   9.343763443   -0.681107054   
0.570747997   9.17930938   -0.755325966   
0.215936902   8.324373566   -0.762375157   
-0.080269356   7.651328478   -0.776022064   
0.686161776   6.89156869   -0.75799204   
0.407372475   6.49138418   -0.773616202   
0.16123425   6.145247742   -0.790658001   
-0.061296316   6.023194547   -0.834223334   
0.541191379   5.407772074   -0.797596764   
0.342720176   5.411303729   -0.847631125   
0.14469822   5.407016535   -0.898065257   
-0.054710743   5.431973992   -0.957558918   
0.123904018   4.517938009   -0.923392082   
-0.043552589   4.301767911   -0.923523037   
-0.034730322   3.540241819   -0.899939485   
-0.150013763   13.50786748   2.617751857   
1.352059394   13.52744874   2.523092549   
0.850002726   13.53408231   2.379901525   
0.351995104   13.57142017   2.248950288   
-0.140274958   13.5464848   2.112958993   
1.353378946   13.54781889   2.011253576   
0.853117798   13.51205424   1.866404081   
0.358943983   13.56529882   1.738844651   
-0.09734257   9.901161443   1.174039247   
0.994116775   9.951472601   1.106241267   
0.63019907   9.931753405   1.001559948   
0.266425257   9.931148292   0.906578139   
-0.092329887   9.882578589   0.80819007   
0.977631906   9.743467818   0.722373173   
0.626506337   9.851791316   0.63352945   
0.268954288   9.896555139   0.541375248   
-0.087154486   9.882525572   0.446706166   
0.995188722   9.887176878   0.369414729   
0.601637391   9.383155445   0.25934887   
0.260003702   9.421875102   0.170281561   
-0.082361548   9.451285828   0.081988325   
0.946833344   9.372292687   0.00641199   
0.604578182   9.398194651   -0.084487673   
0.263564572   9.419742901   -0.172054601   
-0.076455865   9.435019429   -0.263223005   
0.946110298   9.326070696   -0.33717384   
0.607468975   9.376712174   -0.425536272   
0.26765003   9.412973634   -0.517742092   
-0.073125743   9.409136721   -0.607325551   
0.953161768   9.346838176   -0.681541154   
0.598582513   9.172541708   -0.754916719   
0.241359194   8.31969026   -0.762010495   
-0.056728573   7.642584906   -0.775113928   
0.70689549   6.88547591   -0.757556808   
0.426503006   6.478213218   -0.772198921   
0.179738169   6.132826885   -0.789127232   
-0.042796003   6.02038299   -0.833811824   
0.559404307   5.421833306   -0.799920034   
0.359582085   5.414170344   -0.848248929   
0.161315446   5.407533393   -0.898229051   
-0.037969551   5.421283725   -0.955649365   
0.137794131   4.518516113   -0.923592236   
-0.030375441   4.304814373   -0.924152701   
-0.02394726   3.551961647   -0.902895757   
-0.108816116   13.53869641   2.623649378   
1.393655547   13.52421474   2.523274939   
0.891909211   13.53730813   2.380938647   
0.392686026   13.5377336   2.243557022   
-0.098649465   13.53795876   2.11157211   
1.388450028   13.48062316   2.001900893   
0.894829993   13.51332726   1.866950298   
0.290882562   9.850133108   1.262730855   
-0.066891901   9.89048985   1.172744037   
1.02596659   9.961229078   1.107670468   
0.659081049   9.905947111   0.999156689   
0.2944222   9.847664237   0.899035469   
-0.062347819   9.936634989   0.812591278   
1.024039951   9.900134364   0.734217749   
0.656197161   9.841857176   0.633017088   
0.299164272   9.890692739   0.541102258   
-0.056926836   9.898729918   0.447428634   
1.014482658   9.777721797   0.365439725   
0.630354655   9.380268295   0.259321303   
0.288939031   9.422032504   0.170299621   
-0.053359379   9.450493836   0.081979653   
0.975789788   9.371332565   0.006413351   
0.633072316   9.391307897   -0.08444282   
0.292586811   9.422887388   -0.172127617   
-0.047494176   9.432210697   -0.26313932   
0.976172606   9.337039293   -0.337677082   
0.636977509   9.385768172   -0.426033941   
0.296244394   9.403126406   -0.517248029   
-0.044361839   9.431270544   -0.608742592   
0.98235412   9.348829983   -0.681902895   
0.62841948   9.195520543   -0.756963006   
0.266690912   8.312938886   -0.761463445   
-0.03322053   7.628794464   -0.773701357   
0.727598233   6.879320153   -0.757121633   
0.446171056   6.473902336   -0.771844572   
0.198777261   6.139186228   -0.790020172   
-0.024281502   6.009590101   -0.832302754   
0.574780909   5.40828515   -0.798177611   
0.376396341   5.41599837   -0.848712294   
0.178002079   5.409970912   -0.898720432   
-0.021333233   5.420390037   -0.955475738   
0.151919052   4.525905788   -0.925193633   
-0.017113726   4.291199618   -0.921214253   
-0.067108718   13.50460629   2.616990824   
1.43576337   13.52574192   2.524369758   
0.932826946   13.52566469   2.379382966   
0.434502027   13.54533966   2.245028063   
-0.056952562   13.49966421   2.105561818   
1.432202072   13.49892574   2.005262116   
0.935462244   13.49865909   1.865311528   
0.322167522   9.881909404   1.266925115   
-0.036676419   9.925405292   1.176865103   
1.057466191   9.96693002   1.108660023   
0.688777918   9.893952376   0.998155331   
0.325453389   9.871597741   0.90130736   
-0.031750508   9.901896182   0.8097386   
1.05387996   9.891988314   0.733849929   
0.687221792   9.851743702   0.63378563   
0.327379092   9.82585939   0.537607757   
-0.026597895   9.913842764   0.448105951   
1.055199485   9.874922668   0.369191837   
0.659270081   9.380284584   0.259376467   
0.317844064   9.421101269   0.170299621   
-0.024368001   9.451613464   0.081988325   
1.003896358   9.362329604   0.006409268   
0.66216271   9.393310796   -0.084478702   
0.321596726   9.424943237   -0.172182379   
-0.018562236   9.435310435   -0.263223004   
1.0075947   9.359833902   -0.338611682   
0.666052396   9.387755989   -0.426214901   
0.324953363   9.39818152   -0.517028387   
-0.01543343   9.435353676   -0.609000203   
1.011245796   9.347755221   -0.682047615   
0.655704987   9.180625605   -0.755898944   
0.292228386   8.313076354   -0.761554639   
-0.009821964   7.633835249   -0.774205851   
0.748700297   6.877055829   -0.757121634   
0.467028999   6.486369414   -0.773498124   
0.217681362   6.14052969   -0.790275279   
-0.005791246   5.95515609   -0.82475758   
0.592231188   5.414364523   -0.799339245   
0.392796056   5.411862078   -0.848248929   
0.194705208   5.412356895   -0.899211812   
-0.004703611   5.420429957   -0.955475738   
0.165839487   4.526397488   -0.925393786   
-0.003957427   4.301008962   -0.92331317   
-0.025674986   13.50376645   2.616800566   
1.465613526   13.41473785   2.504479927   
0.970779624   13.47361832   2.370740053   
0.475813907   13.53704078   2.243883893   
-0.015581389   13.53929769   2.11172613   
1.474146455   13.4993855   2.005992868   
0.979159702   13.5273435   1.869681621   
0.352377201   9.877900472   1.266543883   
-0.006148296   9.802333587   1.162264707   
1.088578751   9.968579242   1.109209698   
0.723241109   9.948356709   1.003863071   
0.355271194   9.857615513   0.900125996   
-0.001371495   9.89995278   0.809575639   
1.07824507   9.834183936   0.729803667   
0.717733266   9.853570224   0.634041811   
0.357450227   9.822813148   0.537498503   
0.005204977   13.51719764   0.610975554   
1.089422533   9.907398113   0.370529216   
0.687899025   9.376223416   0.259321303   
0.346672523   9.41808385   0.170263486   
0.004630724   9.454642807   0.08201435   
1.032943875   9.362186728   0.006411309   
0.690977889   9.391235286   -0.084478702   
0.35054771   9.424910996   -0.172200647   
0.010391577   9.441321245   -0.263390315   
1.03597556   9.353719277   -0.338503828   
0.694998039   9.387660482   -0.42630538   
0.353747496   9.396141981   -0.51697349   
0.013499609   9.425378196   -0.608356116   
1.039478333   9.340643192   -0.681758175   
0.682904943   9.165650055   -0.754834881   
0.318377811   8.329057664   -0.763104539   
0.013614308   7.642783211   -0.775113928   
0.770016493   6.876702157   -0.75733925   
0.487447161   6.491837444   -0.774324841   
0.236557396   6.14082408   -0.790402892   
0.012180046   5.812507649   -0.805002931   
0.609613666   5.41940435   -0.800355624   
0.409770281   5.41555732   -0.849021166   
0.211155201   5.40779103   -0.898556638   
0.011926056   5.420418814   -0.955475737   
0.179764383   4.526846226   -0.925593938   
0.009248401   4.305889666   -0.92436263   
0.015750671   13.5008366   2.616229792   
1.523778662   13.56162301   2.532763761   
1.014325404   13.50004262   2.375925895   
0.517267397   13.53354599   2.243557022   
0.026030539   13.57781582   2.117736187   
1.514009358   13.48103637   2.003946763   
1.020432722   13.52131174   1.869271898   
0.524692836   13.5420324   1.736556787   
0.024239957   9.931401423   1.177571538   
1.116383641   9.940499062   1.106461207   
0.749322738   9.887555725   0.997955059   
0.529442022   13.53636369   1.236185149   
0.028969023   9.888947065   0.808679067   
1.111762867   9.860559882   0.732010708   
0.748111328   9.853312465   0.634169902   
0.389710632   9.875547771   0.540447025   
0.046723425   13.53110405   0.611607721   
1.121496991   9.918904615   0.37108646   
0.717499809   9.38503349   0.259624601   
0.375485478   9.414978197   0.170227366   
0.033633582   9.453584206   0.082005678   
1.06222532   9.363942113   0.006414713   
0.719710083   9.388073994   -0.084469732   
0.379421052   9.422792572   -0.172182379   
0.03934876   9.439245354   -0.263334555   
1.065345774   9.356454244   -0.338719507   
0.723949329   9.387475782   -0.42639586   
0.382857169   9.401996459   -0.517357821   
0.042411707   9.424294277   -0.608291742   
1.067223343   9.329483262   -0.681179413   
0.710096361   9.151588575   -0.753852658   
0.343066618   8.307147084   -0.761189977   
0.037148815   7.66061367   -0.776930141   
0.791337613   6.876282645   -0.757556808   
0.50782588   6.496251155   -0.775033539   
0.255354835   6.139078528   -0.79027528   
0.029874417   5.785698657   -0.801298921   
0.626237298   5.417509013   -0.800355626   
0.426848442   5.420184262   -0.849947898   
0.227329936   5.3972618   -0.896918704   
0.02855561   5.420356611   -0.955475737   
0.1938611   4.531167786   -0.926594819   
0.022514736   4.31659584   -0.926671416   
0.057207997   13.50956108   2.617942115   
1.554551205   13.46311866   2.515246192   
1.060193068   13.55381968   2.385951634   
0.559884303   13.55850929   2.247969672   
0.067410738   13.5223412   2.109106385   
1.554113816   13.46551819   2.002339344   
1.061678071   13.51515549   1.868862177   
0.412980234   9.875552585   1.266543883   
0.054703484   9.93028744   1.177453877   
1.148470805   9.95085049   1.108000319   
0.778949756   9.87628331   0.997053837   
0.417008917   9.885099036   0.902852253   
0.059457187   9.913728432   0.810716652   
1.139943464   9.839270677   0.730686471   
0.777865732   9.845001378   0.63378563   
0.418606261   9.841385   0.538645177   
0.088249073   13.53289544   0.611698022   
1.146963715   9.872733343   0.369489026   
0.746210085   9.381791482   0.259597034   
0.404411379   9.414780754   0.170245426   
0.062629982   9.452436418   0.081996998   
1.092916453   9.377524462   0.006426284   
0.749780807   9.401770303   -0.084613267   
0.408284705   9.42058496   -0.172164125   
0.068329472   9.442079436   -0.26341821   
1.093929844   9.352149635   -0.338683566   
0.752746293   9.385210617   -0.42639586   
0.41174395   9.401775533   -0.517412717   
0.071256862   9.415138913   -0.607712028   
1.098285033   9.346966432   -0.682698736   
0.738730737   9.15632065   -0.754425578   
0.368330251   8.301081301   -0.760734121   
0.060572303   7.650514798   -0.775921153   
0.812546718   6.874809764   -0.757665645   
0.52799499   6.497631671   -0.77538783   
0.273966767   6.133311778   -0.78963745   
0.047518555   5.772703129   -0.799515491   
0.642621776   5.413597091   -0.800065231   
0.442105345   5.402109424   -0.847322196   
0.243798356   5.39456792   -0.896591117   
0.045209524   5.423197828   -0.955996561   
0.035709165   4.31064032   -0.925412089   
0.098711828   13.51717496   2.61946394   
1.612288217   13.59693075   2.541157526   
1.100014545   13.5289057   2.382148857   
0.601172442   13.5498293   2.24682574   
0.10923852   13.5645557   2.115732991   
1.596000255   13.46559873   2.003070096   
1.101202386   13.48813806   1.865584755   
0.443765379   9.885138664   1.267941969   
0.08525409   9.940002878   1.178631308   
1.180748986   9.962086415   1.109649461   
0.808108273   9.859963544   0.995651935   
0.447198938   9.880788419   0.902579621   
0.089564607   9.879614187   0.807945514   
1.16635456   9.804037292   0.728332267   
0.8117406   9.88732608   0.636667634   
0.448569767   9.835067112   0.538372128   
0.129747844   13.53056264   0.611607721   
1.173814862   9.840392704   0.368411672   
0.774824869   9.377465599   0.2595419   
0.433247636   9.412497128   0.170227366   
0.09160997   9.450199992   0.081979653   
1.121324772   9.371148765   0.006424242   
0.778126208   9.393446727   -0.084559437   
0.437045661   9.416292119   -0.172109363   
0.097245542   9.436826818   -0.263278765   
1.122259206   9.345772186   -0.338575711   
0.78128737   9.379871258   -0.426260141   
0.440632996   9.401465416   -0.517467613   
0.100162989   9.416871151   -0.607840833   
1.127791924   9.350484439   -0.683205196   
0.7664857   9.150038236   -0.754098169   
0.393843064   8.300906814   -0.760825257   
0.084054393   7.651287786   -0.776022064   
0.833754199   6.873271042   -0.757774423   
0.547760034   6.494002504   -0.775151617   
0.292261934   6.121544954   -0.788234237   
0.065183962   5.768568157   -0.798966769   
0.45926196   5.407618435   -0.848403363   
0.260395078   5.394779846   -0.89675491   
0.061869906   5.425003315   -0.956343759   
0.048933853   4.310510269   -0.925412087   
0.14012039   13.51091903   2.618322394   
1.639386697   13.47187123   2.518713039   
1.140107336   13.50878245   2.379210111   
0.64194518   13.53116859   2.244047448   
0.150930401   13.5710727   2.116811599   
1.637543535   13.46260316   2.003362397   
1.143163692   13.49160622   1.866540695   
0.47380532   9.877786024   1.267179387   
0.115772314   9.941680243   1.178866746   
1.211306664   9.95841685   1.109649461   
0.844087883   9.924853406   1.002461171   
0.475827948   9.844555913   0.899398939   
0.120092078   9.897231506   0.809412621   
1.197998514   9.813281814   0.729288682   
0.841477708   9.87782857   0.636219347   
0.480780463   9.875532173   0.540665417   
0.171169903   13.52310906   0.611291637   
1.2151687   9.927999945   0.371829432   
0.8034201   9.373052431   0.259486736   
0.462367914   9.416116249   0.170317681   
0.120564067   9.446874928   0.081953628   
1.148973063   9.358731988   0.006418116   
0.805742702   9.377066963   -0.08443385   
0.465685269   9.409914048   -0.172018094   
0.126183486   9.435484722   -0.26325087   
1.149948822   9.334350248   -0.338288148   
0.81014673   9.37842525   -0.42630538   
0.469274988   9.396080299   -0.517248029   
0.1289847   9.411530442   -0.607518789   
1.156596006   9.347970901   -0.683277557   
0.793605336   9.136721968   -0.753197841   
0.419509008   8.30363767   -0.761189977   
0.107429955   7.644030334   -0.775315749   
0.854714431   6.869694282   -0.757665644   
0.567161787   6.48635595   -0.774442977   
0.310789477   6.11566656   -0.787596407   
0.082753294   5.759427317   -0.797732119   
0.476196637   5.410120947   -0.849021166   
0.276843631   5.391985275   -0.896427323   
0.078513294   5.424787926   -0.956343759   
0.062115787   4.307407089   -0.924782424   
0.181781728   13.5261317   2.621366284   
1.693373595   13.56824482   2.537690679   
1.183949972   13.53269459   2.384050245   
0.684251552   13.54489987   2.246662186   
0.19180812   13.51719681   2.108489837   
1.685084046   13.50757974   2.010815125   
1.180563333   13.44264085   1.860258723   
0.504815603   9.890154861   1.268958707   
0.145980222   9.921419732   1.176511886   
1.243698546   9.969447661   1.111298601   
0.87261107   9.900412088   1.000258183   
0.508022396   9.881836889   0.902943149   
0.150319441   9.887846944   0.808679067   
1.239373339   9.899611321   0.735983418   
0.871778498   9.875200827   0.636219348   
0.510095276   9.855064575   0.539627998   
0.212877322   13.53650422   0.611923804   
1.24574619   9.925217428   0.371866596   
0.831818754   9.366559752   0.259376467   
0.491253986   9.414653696   0.170317681   
0.149656903   9.453459952   0.08201435   
1.176805582   9.348217286   0.006413351   
0.834773318   9.377539077   -0.084460761   
0.494499796   9.407442684   -0.17199984   
0.155146998   9.436053293   -0.263278765   
1.177829464   9.324829429   -0.338072469   
0.836867895   9.353010044   -0.425264832   
0.497465158   9.382631367   -0.51658922   
0.157858257   9.411090166   -0.607518789   
1.186273706   9.352293744   -0.683856377   
0.821364771   9.131266332   -0.75295227   
0.444822343   8.299328953   -0.760916453   
0.130898028   7.644659743   -0.77541666   
0.875660591   6.866054063   -0.757556808   
0.586611344   6.479640624   -0.773852414   
0.329230366   6.108741954   -0.786831024   
0.100180809   5.745280607   -0.795811479   
0.493150987   5.412570012   -0.849638967   
0.293706329   5.397020807   -0.897410084   
0.094948666   5.412705451   -0.954260577   
0.074971394   4.286667082   -0.920374661   
0.223262245   13.52452867   2.621176026   
1.725011903   13.48496471   2.523092549   
1.226261725   13.53782741   2.385605928   
0.725275541   13.53288524   2.245028063   
0.233345592   13.52049604   2.109106386   
1.730657419   13.53472877   2.015637617   
1.232203601   13.55339729   1.876100088   
0.534137357   9.869740635   1.266543882   
0.175870681   9.890145685   1.172861698   
1.269488077   9.928121236   1.107120794   
0.901534626   9.881834405   0.99865601   
0.535519684   9.828524023   0.898217575   
0.180417521   9.874384923   0.807619535   
1.266566005   9.8710321   0.734144196   
0.899982578   9.849621453   0.634746278   
0.54415484   9.923243366   0.543450086   
0.254274327   13.52879502   0.61160772   
1.277082861   9.928286149   0.37212665   
0.859178864   9.34903256   0.25896287   
0.520190587   9.414100451   0.170335742   
0.178658999   9.452955818   0.08201435   
1.205224074   9.342579168   0.00641199   
0.863539294   9.374934136   -0.084460761   
0.5233591   9.405880627   -0.171999839   
0.184154163   9.438530624   -0.26336242   
1.208356254   9.336039075   -0.338611682   
0.864821931   9.342441136   -0.424902913   
0.526080591   9.378070179   -0.516424532   
0.186849125   9.416547868   -0.607905265   
1.216631672   9.361468372   -0.684796939   
0.84660526   9.098932787   -0.750496737   
0.46983147   8.289970981   -0.76018707   
0.154230398   7.63825387   -0.774811255   
0.897107606   6.866291924   -0.757883202   
0.605006744   6.461991866   -0.77196265   
0.348026574   6.108693307   -0.786958578   
0.117765988   5.742965626   -0.795537119   
0.509846869   5.412015438   -0.849793462   
0.310149544   5.394124591   -0.897082497   
0.111675925   5.418296427   -0.955302168   
0.08794148   4.277619072   -0.918485669   
0.265541709   13.5640237   2.628976127   
1.775956095   13.55272415   2.536778251   
1.262645205   13.4790845   2.375925894   
0.767516077   13.54340161   2.247152612   
0.274744463   13.51576482   2.108489836   
1.768704213   13.50287154   2.011692027   
1.269142986   13.50023855   1.869271899   
0.563621848   9.854192499   1.264764447   
0.205487833   9.854810387   1.168740632   
1.302006553   9.939947335   1.108879845   
0.936238946   9.925578831   1.003362392   
0.569447911   9.892452513   0.90421541   
0.211008572   9.887734956   0.808760605   
1.290346128   9.81766065   0.730465755   
0.930759684   9.852775782   0.63513055   
0.568130508   9.809882122   0.53733471   
0.215550631   9.858576362   0.445712795   
1.302315124   9.884692031   0.370640648   
0.887290003   9.340381666   0.258797437   
0.549186631   9.414456513   0.170371877   
0.20759353   9.449364146   0.081988325   
1.233488014   9.335863844   0.006409948   
0.89258143   9.37522691   -0.084487673   
0.552447901   9.408223369   -0.172072855   
0.213178   9.440919721   -0.263446075   
1.236336555   9.327334539   -0.338431945   
0.895858371   9.364604689   -0.426033941   
0.554967544   9.37840561   -0.516534324   
0.215874949   9.421916379   -0.608291741   
1.242714975   9.337918109   -0.683349916   
0.874230244   9.093315922   -0.750251166   
0.49466851   8.278549707   -0.759275357   
0.177409002   7.626803988   -0.773701357   
0.919486902   6.873360438   -0.758971167   
0.624159847   6.453186495   -0.771135932   
0.366944515   6.110567235   -0.7873413   
0.135314561   5.73960634   -0.795125549   
0.526544013   5.411409324   -0.849947899   
0.326816299   5.395116941   -0.897410084   
0.128228556   5.4149748   -0.954781344   
0.101295569   4.287103765   -0.920584587   
0.307198765   13.56510803   2.629356643   
1.822102769   13.58131852   2.543164771   
1.307407798   13.51044041   2.382148856   
0.808709973   13.5350738   2.246171996   
0.316278307   13.5178223   2.108952131   
1.8076238   13.47875191   2.008915404   
1.312278643   13.51402913   1.871729994   
0.595820755   9.885089701   1.268958707   
0.236077212   9.869025594   1.170506838   
1.331570968   9.929010619   1.108110348   
0.964659817   9.901863641   1.00125954   
0.598709772   9.872766151   0.902579621   
0.330602784   13.54374272   1.107878887   
1.328439657   9.872958923   0.734879897   
0.957010185   9.809150928   0.632504727   
0.600169336   9.83998542   0.53908196   
0.337579471   13.53896412   0.612149586   
1.330230614   9.862824013   0.369971973   
0.912916595   9.306775474   0.257942677   
0.578128458   9.413724888   0.170389937   
0.236532741   9.44668369   0.08197098   
1.262392291   9.334017474   0.006411309   
0.921144358   9.370454219   -0.084469732   
0.581000998   9.401494263   -0.171981585   
0.242141326   9.440221277   -0.263446075   
1.265752679   9.329438439   -0.338647624   
0.923798902   9.353859299   -0.425672021   
0.583613419   9.374665489   -0.516424532   
0.244572622   9.413229139   -0.607776459   
1.272165173   9.339991609   -0.683784018   
0.903305127   9.102492899   -0.751233391   
0.519814624   8.273017822   -0.758910696   
0.200649746   7.620256442   -0.773095953   
0.941783234   6.879370811   -0.759950351   
0.643461858   6.446300835   -0.77054537   
0.384689907   6.093574592   -0.785300198   
0.152711719   5.731242615   -0.794028107   
0.543340892   5.411734432   -0.850256771   
0.343554781   5.397042421   -0.897901465   
0.144709188   5.40963325   -0.953913379   
0.114473834   4.28775023   -0.920794456   
0.348713516   13.56017605   2.628595611   
1.862691258   13.56787248   2.541705171   
1.346404251   13.48186404   2.377827283   
0.847942305   13.49609916   2.240124988   
0.356755513   13.4792556   2.103096094   
1.854751014   13.51528638   2.015199165   
1.35699229   13.54246763   1.876236582   
0.62532967   9.870346402   1.267306465   
0.265844764   9.84939344   1.168269637   
1.363648141   9.936694831   1.109429637   
0.994436653   9.892918449   1.000658726   
0.630326102   9.891753639   0.904487983   
0.271482963   9.87928013   0.80819007   
1.358995175   9.870813066   0.735027002   
0.996295049   9.897517909   0.638396824   
0.634058258   9.895892737   0.542248873   
0.275534302   9.839092826   0.444900026   
1.365127667   9.892353763   0.371235055   
0.941364414   9.302936769   0.25791511   
0.606877968   9.409911443   0.170353802   
0.265485548   9.44491445   0.081962308   
1.291433968   9.333072771   0.006413351   
0.949888206   9.367584558   -0.084469732   
0.609776867   9.398669954   -0.171963317   
0.271131077   9.440433096   -0.26347397   
1.296429872   9.340359503   -0.339186808   
0.952390515   9.349987489   -0.425626781   
0.612176471   9.369841495   -0.516259844   
0.273537792   9.415427592   -0.607969639   
1.299575056   9.327153899   -0.683132837   
0.931125411   9.098687001   -0.751151554   
0.545324473   8.273371511   -0.759093027   
0.223881229   7.614632504   -0.772591459   
0.963297983   6.879402559   -0.760276746   
0.662625845   6.438369435   -0.769836729   
0.402268972   6.075541457   -0.783131601   
0.169999987   5.7208461   -0.792656247   
0.560653312   5.416921328   -0.851337939   
0.359388465   5.385135768   -0.896099795   
0.161187607   5.405226261   -0.953218985   
0.127220635   4.273696709   -0.917856006   
0.390342177   13.56002338   2.628785868   
1.894327912   13.49101706   2.528384251   
1.386549068   13.46591285   2.375753041   
0.89401531   13.56431222   2.251891898   
0.398632691   13.49587466   2.105870093   
1.899369183   13.53206497   2.01856039   
1.397006727   13.52346032   1.874188209   
0.656003049   9.874319405   1.268069047   
0.295553779   9.831657638   1.166267994   
1.397719045   9.958056123   1.112288157   
1.030628457   9.946232423   1.006366467   
0.65768359   9.845059165   0.900398568   
0.301730005   9.876408568   0.808027052   
1.383848984   9.828083086   0.732157872   
1.024080649   9.869600014   0.636795725   
0.662475266   9.865009469   0.540665417   
0.307735739   9.903103669   0.447835018   
1.392398377   9.866349595   0.370417756   
0.970937888   9.30994656   0.258190841   
0.635676921   9.407008258   0.170335742   
0.294492054   9.445054925   0.08197098   
1.32062175   9.333026875   0.006416074   
0.978519125   9.363631021   -0.084460761   
0.638337534   9.392764779   -0.171890301   
0.300060863   9.438557779   -0.263446075   
1.325781768   9.34128555   -0.339366545   
0.981801355   9.353975359   -0.42594346   
0.641124305   9.370907846   -0.516424532   
0.302678941   9.422522664   -0.608484921   
1.323964249   9.293500781   -0.680962334   
0.957781401   9.083893314   -0.750169328   
0.57097842   8.275632998   -0.759457688   
0.247015508   7.606949079   -0.771885144   
0.982286048   6.86165444   -0.75864483   
0.681956571   6.432356316   -0.769364244   
0.420769438   6.072299777   -0.782876435   
0.18725836   5.711387492   -0.791421596   
0.375976836   5.384991694   -0.896263587   
0.177705108   5.402738023   -0.95287179   
0.140620365   4.282081186   -0.919744998   
0.431879385   13.55679934   2.628405352   
1.941995428   13.52893677   2.536595624   
