X     Y     Z
4.712825559   2.624158832   1.152961066   
4.32801603   2.62367944   1.030442109   
3.974910278   2.614166607   0.921920438   
5.160484838   2.627991146   1.074782292   
4.697186852   2.614591853   0.94345605   
4.311707157   2.61224975   0.835123584   
3.978509232   2.612258532   0.742332663   
5.132180383   2.613915256   0.850796977   
4.684478805   2.605483829   0.738941455   
4.307545333   2.606645794   0.645155687   
3.969250581   2.603205909   0.56282294   
5.136939714   2.616339403   0.637666386   
4.679744503   2.600925736   0.538831627   
4.353024881   2.631987934   0.464194194   
3.971694061   2.60203362   0.388283335   
5.126077007   2.607990654   0.424271927   
4.635645737   2.575569413   0.340333159   
4.208257599   2.542451108   0.268858461   
4.416087134   2.889871818   0.23854733   
5.059945974   2.807844608   0.159618408   
5.029899766   2.789794037   -0.051600456   
4.359856471   2.848620935   -0.14528994   
4.461121707   2.687574171   -0.286347444   
4.482120137   2.926384508   -0.345497337   
4.433728753   2.667592236   -0.473726552   
4.380385306   2.857781485   -0.530431435   
4.005318968   2.611292866   -0.662193066   
3.687363936   2.032142801   -0.818085844   
3.481244318   2.087493761   -0.829311395   
3.236933166   2.110097484   -0.829491643   
3.287104841   1.653140409   -0.821565201   
3.089798729   1.699796633   -0.821873875   
2.915040198   1.747560182   -0.827392127   
2.724493729   1.77482814   -0.826525337   
2.812012313   1.409968019   -0.828604453   
2.656531185   1.458725739   -0.828930428   
2.497778927   1.496524107   -0.827191125   
2.381540903   1.552009083   -0.839539555   
5.276386597   2.662499487   1.806444557   
4.802338701   2.656155156   1.612694489   
4.39974406   2.655437356   1.45505607   
4.046461447   2.65386641   1.320378053   
5.241557016   2.647105312   1.549272481   
4.788876289   2.648708949   1.384569222   
4.386596514   2.643012907   1.243042823   
4.03133499   2.637510305   1.12017662   
5.228720237   2.642570031   1.313515584   
4.733692016   2.616784438   1.15609639   
4.352834926   2.62049677   1.034432163   
4.016609496   2.623973674   0.929720422   
5.22819366   2.64230376   1.087190667   
4.729324226   2.613507895   0.948296067   
4.343370996   2.613250437   0.839699612   
4.012160036   2.616772943   0.747109974   
5.179905586   2.618239648   0.857373039   
4.726271469   2.609775236   0.74426737   
4.331675515   2.603125661   0.647570569   
3.994691578   2.602399436   0.56529558   
5.162683657   2.609534667   0.63986526   
4.732130698   2.611071174   0.543938553   
4.35595694   2.615544788   0.463648932   
4.000542286   2.603427126   0.39032092   
5.175895939   2.613378205   0.427729682   
4.685469277   2.584471298   0.343407298   
4.291385549   2.574735168   0.2736634   
4.419906751   2.873043062   0.238276412   
5.405786945   2.727322176   0.225088877   
4.053954718   2.634561875   0.041939648   
5.055953771   2.783995774   -0.051779874   
4.408943896   2.640456019   -0.093831365   
4.354321135   2.825980436   -0.144815874   
4.425646452   2.647730936   -0.283547635   
4.470982994   2.899588041   -0.34395149   
4.436762768   2.650912601   -0.47317953   
4.359910672   2.825392077   -0.526899921   
4.058208382   2.62806757   -0.669601087   
3.679802257   2.013281945   -0.815034026   
3.493524772   2.080312678   -0.830712581   
3.253240002   2.10653373   -0.832010299   
3.298273845   1.646098657   -0.823090662   
3.091580061   1.688442047   -0.820965977   
2.937085372   1.748549261   -0.832122769   
2.777933659   1.797525593   -0.841060348   
2.832774267   1.40951915   -0.83344417   
2.64574951   1.442258606   -0.824181606   
2.518891889   1.498691138   -0.83265657   
2.372604664   1.535835822   -0.834724394   
5.298211661   2.653150437   1.811121376   
4.838217877   2.656648185   1.621998535   
4.433453775   2.657260662   1.46350145   
4.058625842   2.644072572   1.321694241   
5.273857303   2.643142371   1.556415501   
4.802078204   2.636803957   1.386040859   
4.40719312   2.637026962   1.246580837   
4.051658057   2.633091174   1.123573844   
5.269947346   2.64313944   1.321829   
4.793135809   2.630478569   1.168637685   
4.391972997   2.625734565   1.041813841   
4.034523327   2.618051359   0.93200334   
5.251216449   2.633745027   1.090292733   
4.7701341   2.616988657   0.954864676   
4.388631611   2.622177589   0.846890496   
4.035096044   2.614121496   0.749883916   
5.228589525   2.622739193   0.864095251   
4.756841089   2.607643844   0.747818017   
4.353269643   2.597956876   0.649604161   
4.037672773   2.612790582   0.570240917   
5.223970865   2.620422414   0.646461824   
4.765425557   2.610403111   0.546842492   
4.368237172   2.604718782   0.464103326   
4.018555087   2.597634039   0.391298944   
5.23649503   2.623845422   0.432070241   
4.71088237   2.579670524   0.344688172   
4.331860671   2.580978444   0.275738268   
4.416111508   2.85134132   0.237599095   
4.094783594   2.64326249   0.042277941   
4.425617695   2.632027968   -0.09401392   
4.347847615   2.802859097   -0.144313914   
4.470661086   2.65607068   -0.285908247   
4.468951761   2.878831963   -0.343114135   
4.425176734   2.625601025   -0.471082579   
4.375250558   2.816310742   -0.527707087   
4.053755962   2.607566769   -0.667543297   
3.683373791   2.000577251   -0.814461763   
3.501577339   2.070582186   -0.831112886   
3.248174968   2.089138629   -0.829071849   
3.309430491   1.639003877   -0.824616123   
3.107019454   1.684519507   -0.82368967   
2.960836893   1.750408438   -0.837326494   
2.763052796   1.775894145   -0.834901459   
2.848357322   1.406387252   -0.836755507   
2.665431773   1.442398096   -0.828930429   
2.549151752   1.506125173   -0.841127942   
2.393438983   1.538923108   -0.840389278   
5.364562601   2.665822571   1.830998096   
4.872459831   2.656027493   1.630738603   
4.465562481   2.657917846   1.471401926   
4.0910169   2.647331945   1.329591259   
5.335617812   2.653645847   1.572232189   
4.863770891   2.651291125   1.401493008   
4.435313011   2.635407164   1.252241729   
4.077720534   2.632270051   1.128556436   
5.294629438   2.63522009   1.325985711   
4.834674145   2.634007199   1.176789572   
4.426970925   2.628255573   1.048197977   
4.078018731   2.628532038   0.940183779   
5.288319097   2.632079359   1.096314471   
4.798899809   2.61364798   0.959013219   
4.412775738   2.618265894   0.849995658   
4.056391004   2.610284664   0.75234964   
5.269378765   2.622996708   0.869502226   
4.807455309   2.616240767   0.754509593   
4.392791671   2.603299723   0.654306848   
4.056529094   2.607371043   0.571771565   
5.288932403   2.632730098   0.653498094   
4.797886231   2.609079831   0.549646294   
4.395059756   2.602467753   0.466102586   
4.046633675   2.598216784   0.393255048   
5.231125438   2.601107282   0.430966691   
4.749461695   2.581887562   0.346929754   
4.355227135   2.57682858   0.276721089   
4.424838714   2.837779479   0.237599095   
5.263120821   2.614954669   0.218476263   
4.105398877   2.632306725   0.042303963   
4.442280786   2.623522199   -0.094196474   
4.342115333   2.78034339   -0.143839834   
4.453849273   2.627628877   -0.284316207   
4.452545078   2.848972623   -0.341181841   
4.443507236   2.618078585   -0.472176652   
4.377164839   2.798587025   -0.526899921   
4.086778394   2.611117201   -0.671658878   
3.692086375   1.990665094   -0.815034026   
3.488481227   2.048419342   -0.826508963   
3.27846332   2.094428141   -0.835158676   
3.284662506   1.614207489   -0.817206789   
3.130182193   1.684671963   -0.828456134   
2.969544672   1.743284098   -0.838272657   
2.779924718   1.774710092   -0.838350422   
2.846579961   1.394663827   -0.834972493   
2.655398981   1.426453922   -0.824445474   
2.556249468   1.499757728   -0.841947744   
2.371476155   1.514538161   -0.831042197   
5.405309072   2.66542377   1.842105777   
4.915181613   2.65978768   1.64229809   
4.48777703   2.652527998   1.476033208   
4.12752373   2.653025595   1.338804468   
5.392289779   2.661227166   1.586518231   
4.892345097   2.647430024   1.407379563   
4.476018295   2.641047193   1.26144075   
4.097256267   2.627107832   1.131727166   
5.33593483   2.635383746   1.33429901   
4.868537094   2.63311859   1.183060218   
4.45358391   2.625609801   1.052587141   
4.101773282   2.626065918   0.943798443   
5.316644894   2.625856698   1.100511354   
4.842419128   2.618119036   0.966100391   
4.439487872   2.615733216   0.85359113   
4.092686041   2.615919539   0.757589246   
5.304896868   2.620400017   0.874032417   
4.833762075   2.611367233   0.75737741   
4.418709308   2.60037493   0.656975942   
4.079575605   2.604532197   0.573890987   
5.320154678   2.627936639   0.656356614   
4.831258898   2.608054528   0.552550232   
4.422768082   2.600581269   0.468192742   
4.072232937   2.597043865   0.394966625   
5.299002155   2.614612254   0.435895817   
4.774046612   2.576308982   0.348146583   
4.376026088   2.57104198   0.277540117   
4.435209336   2.825264342   0.237689411   
5.254089145   2.590399394   0.217770425   
4.14803639   2.64172245   0.042659605   
4.464970411   2.618479693   -0.094506805   
4.361589853   2.773982732   -0.144202364   
4.490319987   2.63060825   -0.28612786   
4.457053653   2.832622612   -0.340859768   
4.45925402   2.608959685   -0.47299717   
4.387409698   2.786211551   -0.527101683   
4.102297311   2.603343508   -0.672893529   
3.704234597   1.98257106   -0.816369171   
3.498981401   2.040174883   -0.827509845   
3.285698955   2.084883986   -0.835368601   
3.321179349   1.6195223   -0.825051952   
3.124168956   1.669094805   -0.825505465   
2.966484814   1.729272185   -0.835907306   
2.7689865   1.755792969   -0.833423323   
2.856933132   1.388883589   -0.836755507   
2.676785236   1.427377672   -0.829721916   
2.538397131   1.478833972   -0.834569463   
2.375301589   1.506741786   -0.830758955   
5.441808136   2.662698359   1.851751834   
4.947829495   2.657862228   1.650474414   
4.519958167   2.652871142   1.483933802   
4.151093684   2.65021392   1.343805896   
5.40998106   2.649349357   1.589324418   
4.920941012   2.643418415   1.413266118   
4.513446024   2.644496858   1.269696232   
4.12501383   2.627082369   1.137162633   
5.371157491   2.632312674   1.341081063   
4.909333037   2.635747553   1.191003015   
4.484450517   2.625300524   1.057973732   
4.12223692   2.621371563   0.946652075   
5.354694164   2.624244245   1.1067156   
4.888614248   2.623744702   0.973706122   
4.472185993   2.616548634   0.858330535   
4.11487265   2.612353864   0.760209049   
5.363544253   2.628929993   0.882362107   
4.878417814   2.616188938   0.763113047   
4.46520415   2.609326479   0.662695426   
4.110190229   2.606362576   0.577070119   
4.874317365   2.612018562   0.556555665   
4.450505756   2.598549341   0.470282869   
4.107966178   2.602138289   0.397656225   
5.324912269   2.607113643   0.437367187   
4.832949309   2.588982015   0.351861174   
4.467552174   2.606411671   0.282836495   
4.439634991   2.808973407   0.237463643   
4.163727594   2.633795175   0.042737672   
4.778842814   2.782881517   -0.100969126   
4.376840784   2.764859325   -0.144425449   
4.542386868   2.642425573   -0.28892764   
4.455596755   2.812543058   -0.340086845   
4.400144358   2.775392031   -0.527606235   
3.484874398   2.017648656   -0.822705711   
3.286289834   2.071144646   -0.833899348   
3.312075794   1.602524244   -0.8215652   
3.118950149   1.654026724   -0.822781772   
2.958321601   1.712375142   -0.832122769   
2.776820373   1.748838991   -0.834162362   
2.827212466   1.363727194   -0.826821439   
2.693939569   1.425927413   -0.833679249   
2.562073242   1.482117891   -0.840854713   
2.388027375   1.504559708   -0.833591428   
5.475760671   2.658521097   1.860520991   
4.988131327   2.659824356   1.661188113   
4.554677725   2.654495282   1.492651581   
4.175499251   2.647798754   1.349070534   
5.454610094   2.650487902   1.600038949   
4.951269053   2.640168485   1.419643335   
4.543377149   2.643343354   1.275828953   
4.151163704   2.625870082   1.142145225   
5.437124513   2.643985769   1.355520052   
4.940697405   2.633091664   1.196646504   
4.511968536   2.622856669   1.062562337   
4.151010614   2.621818737   0.951408168   
5.404277469   2.628012786   1.115291991   
4.928803878   2.625869606   0.98010182   
4.504077554   2.61669218   0.862906562   
4.142091059   2.611838325   0.763753558   
4.905658784   2.611450719   0.766117418   
4.508362819   2.616025439   0.667906481   
4.148416834   2.612792562   0.581308963   
4.9121743   2.612938894   0.55996034   
4.474826199   2.594373547   0.472009525   
4.128584391   2.597484299   0.398878806   
5.348135712   2.598173227   0.438617871   
4.899023447   2.605066052   0.356088127   
4.472071481   2.590691113   0.282618075   
4.438081823   2.788961274   0.236921792   
4.181948662   2.627392145   0.042841764   
4.384455887   2.750887233   -0.144397569   
4.554795471   2.630974424   -0.289202119   
4.469277293   2.80204081   -0.340473321   
3.491047999   2.006947729   -0.82270571   
3.276882368   2.051196191   -0.829911382   
3.327534649   1.59742399   -0.824180293   
3.135213355   1.65034747   -0.82573244   
2.959349178   1.700870152   -0.830940151   
2.786280943   1.742881494   -0.835394151   
2.805214934   1.342523532   -0.819179826   
2.698301566   1.417655802   -0.833679249   
2.578285883   1.480958246   -0.844680496   
2.384502031   1.492138865   -0.830758955   
5.531277472   2.664536105   1.876597677   
5.02170714   2.657973374   1.66964625   
4.586117819   2.654003187   1.500279662   
4.206459619   2.649372103   1.356441008   
5.494942147   2.64927814   1.609477942   
4.991048734   2.641745986   1.428718384   
4.571660558   2.641058766   1.281489845   
4.186417081   2.630221557   1.149619169   
5.495303638   2.651462112   1.367990177   
4.969498087   2.628896238   1.201663067   
4.538664732   2.619778835   1.066951386   
4.180657613   2.622635725   0.956354519   
5.475186655   2.641755937   1.128247659   
4.963828206   2.625009922   0.985460397   
4.52404796   2.609763022   0.865194603   
4.17185649   2.612753792   0.767760303   
5.437485898   2.623916597   0.891860823   
4.95218619   2.616752013   0.772126222   
4.533556429   2.612085433   0.670448441   
4.174934936   2.611639438   0.58389938   
5.454220979   2.631992121   0.669879537   
4.925446752   2.600643863   0.560561155   
4.524191824   2.604481637   0.476371572   
4.15681936   2.597481413   0.400834882   
5.455800657   2.62982013   0.446784035   
4.894637081   2.583502311   0.355191495   
4.502502385   2.589903416   0.284037708   
4.430515975   2.765282544   0.236063873   
4.198473384   2.619843552   0.042928504   
4.948434696   2.841124881   -0.104182025   
4.393722996   2.737951582   -0.144425449   
4.47700571   2.787788514   -0.340408918   
3.507399691   2.002056092   -0.825107777   
3.287311544   2.043714185   -0.83096084   
3.339469008   1.590565051   -0.82592367   
3.151483262   1.646583979   -0.828683109   
2.940080897   1.677817319   -0.824080671   
2.777619762   1.725630478   -0.83120609   
2.833779821   1.345524597   -0.826311999   
2.71803299   1.417398909   -0.83842807   
2.538530937   1.447783601   -0.830197106   
2.398843249   1.490891161   -0.83415791   
5.586019203   2.669823087   1.892382177   
5.06211341   2.659511193   1.680359948   
4.606752528   2.647111423   1.504366157   
4.237468823   2.650780241   1.363811598   
5.535317394   2.647845572   1.61891705   
5.024876317   2.639947876   1.436076576   
4.599129761   2.638141866   1.286914824   
4.234130429   2.642115887   1.160490221   
5.516614003   2.640910313   1.371271769   
5.015635875   2.633640972   1.210859947   
4.573035867   2.620946977   1.073136082   
4.213680845   2.625371996   0.962061841   
5.504549793   2.635134933   1.132627169   
5.011103227   2.63036838   0.993239041   
4.560283535   2.612052535   0.870587751   
4.194954532   2.609336031   0.770534243   
5.481201081   2.624310226   0.897706249   
4.985632328   2.614890196   0.776086534   
4.576848175   2.618358551   0.675659497   
4.202328266   2.61087187   0.586607517   
5.47123521   2.619538595   0.670979004   
4.988922814   2.614617976   0.566869711   
4.553775643   2.602944164   0.478643463   
4.200335775   2.606789985   0.404258035   
5.485435805   2.623396252   0.448549674   
4.917567576   2.576346624   0.356280262   
4.519964538   2.581524941   0.284638344   
4.420299157   2.740097513   0.235070487   
5.41081092   2.585618827   0.222934213   
4.209890947   2.609057505   0.042963201   
4.956259037   2.825434815   -0.104163771   
4.398702625   2.72235474   -0.144313914   
4.484689068   2.77351527   -0.340344486   
3.523754022   1.997083351   -0.827509845   
3.30105329   2.038242296   -0.832849888   
3.339920944   1.578227362   -0.824834038   
3.141822552   1.629285745   -0.824824543   
2.936761144   1.663999483   -0.821715322   
2.79032419   1.721680966   -0.833423322   
2.818648584   1.327758322   -0.820708149   
2.70180948   1.398412359   -0.832096327   
2.513664029   1.423399044   -0.820632647   
2.399325395   1.481005903   -0.832741645   
5.614922343   2.662506658   1.899397524   
5.108530936   2.66393117   1.693047273   
4.657473506   2.657283234   1.518260118   
4.270984483   2.653550235   1.371971832   
5.583596969   2.649920972   1.630652012   
5.059599657   2.638415288   1.443680102   
4.627468003   2.635562288   1.292575833   
4.26622614   2.643993317   1.167058179   
5.559065231   2.640299735   1.379803935   
5.045372168   2.629540058   1.216085486   
4.605753101   2.620959473   1.078921667   
4.240081981   2.623797445   0.966247162   
5.538364028   2.630467651   1.137918988   
5.040113286   2.625904625   0.997387642   
4.592287908   2.611705362   0.875163779   
4.235722959   2.616706017   0.776544417   
5.543734948   2.633374072   0.906620482   
5.018234751   2.612390304   0.779910291   
4.600383869   2.61312294   0.677947301   
4.226375396   2.607875103   0.588844659   
5.511566617   2.618093694   0.674936931   
5.026050097   2.614452137   0.570174193   
4.575597303   2.596825928   0.480097488   
4.223585893   2.603304577   0.405725086   
5.518686648   2.61852509   0.45060961   
4.971488967   2.585188762   0.359610582   
4.54176046   2.575526579   0.285511969   
4.414222963   2.717619989   0.234302883   
4.31154971   2.653786302   0.04391736   
4.959683395   2.807260893   -0.10405424   
4.395962987   2.702042001   -0.143951384   
4.48807494   2.756609668   -0.339958039   
3.531572024   1.987224191   -0.827910151   
3.292288303   2.018905187   -0.829071849   
3.307632343   1.550574369   -0.815681327   
3.122560042   1.607159806   -0.818469257   
2.95032048   1.659745761   -0.824080672   
2.803030499   1.717669822   -0.835640498   
2.835850049   1.325245695   -0.824528928   
2.708661087   1.391438923   -0.832887759   
2.545689507   1.431237428   -0.829650589   
2.410399006   1.47764783   -0.835007635   
5.659409265   2.662365536   1.911674294   
5.1447978   2.662799004   1.702351317   
4.678162068   2.650095517   1.522346614   
4.297167543   2.651579757   1.377762901   
5.635440703   2.653372633   1.643407408   
5.114163016   2.646943174   1.456924852   
4.654987749   2.632354925   1.29800081   
4.297542916   2.645187685   1.173399635   
5.612156893   2.644444531   1.390961331   
5.08729049   2.631571434   1.224237373   
4.645338941   2.624651937   1.086303346   
4.273203888   2.626197817   0.971954486   
5.597994523   2.637771015   1.14850251   
5.058644645   2.615858238   0.999461885   
4.632923295   2.616037357   0.881374106   
4.265627366   2.617133266   0.780551161   
5.576844458   2.628162009   0.910712223   
5.062309684   2.61562622   0.785509372   
4.625658372   2.608741802   0.680489261   
4.245363519   2.601641832   0.590375365   
5.543848371   2.612612256   0.677905361   
5.062338443   2.613626522   0.573378539   
4.594821421   2.589131489   0.481278853   
4.257054398   2.605945118   0.408170216   
5.583540194   2.628340874   0.455244438   
5.02107668   2.591435651   0.362620677   
4.569652539   2.572847702   0.286767809   
4.418278372   2.701458917   0.234077116   
5.050004557   2.840514644   0.1046761   
4.327349427   2.645240008   0.043995431   
4.970015968   2.793011319   -0.104090748   
4.364984824   2.664584369   -0.142668588   
4.485435746   2.736071779   -0.339120712   
4.399722367   2.681680694   -0.52256118   
3.518834778   1.965867265   -0.823506379   
3.299301606   2.009303665   -0.829281716   
3.342462201   1.554411933   -0.823090661   
3.137016384   1.602445732   -0.820965977   
2.947764151   1.646422322   -0.821951891   
2.796696199   1.702008235   -0.832191534   
2.846921101   1.319792874   -0.826566691   
2.692293131   1.372607639   -0.826556017   
2.522350366   1.407948669   -0.820632645   
2.422293456   1.474734397   -0.837556807   
5.700481348   2.660358648   1.922781859   
5.176838706   2.65927755   1.710245596   
4.714783898   2.651767624   1.531609295   
4.334072016   2.656026791   1.38697611   
5.692613379   2.658986133   1.657693448   
5.164513788   2.652946348   1.468943292   
4.710494264   2.644703378   1.311209676   
4.318103891   2.639610735   1.176796862   
5.646762349   2.639610594   1.397524634   
5.130138441   2.633817064   1.232598236   
4.675589045   2.622852622   1.091490498   
4.303866019   2.626884925   0.977091092   
5.634563095   2.633907913   1.154341739   
5.090305524   2.61246889   1.004129047   
4.662441003   2.61387242   0.885459826   
4.307387128   2.62459913   0.786715473   
5.62700073   2.630731808   0.917580585   
5.084414158   2.607315448   0.787694359   
4.645756599   2.601322706   0.682268697   
4.279622592   2.604609629   0.594025437   
5.621168189   2.628005197   0.686370949   
5.093355648   2.609880208   0.575982069   
4.63750715   2.594471372   0.484913901   
4.292281731   2.609440402   0.410778337   
5.607842398   2.618794091   0.456568674   
5.072525311   2.59831237   0.365758861   
4.590597855   2.566124263   0.287586836   
4.41971429   2.683743134   0.233715882   
5.057822414   2.82452069   0.104658039   
4.340573515   2.63506487   0.044047473   
4.972449533   2.77434025   -0.103962963   
4.353478558   2.639261306   -0.142027197   
4.486980568   2.718161284   -0.33860543   
4.367926642   2.643956031   -0.517818914   
3.513711209   1.948884559   -0.82090416   
3.300430961   1.996136124   -0.828022389   
3.298473796   1.521664507   -0.811104943   
3.114120912   1.578722099   -0.813702793   
2.962998145   1.643025154   -0.824790265   
2.814346546   1.70093965   -0.835886844   
2.852713853   1.311860475   -0.827076132   
2.660343348   1.346051383   -0.815475513   
2.537595928   1.406265107   -0.824185143   
2.42352388   1.465311061   -0.836423843   
5.749404349   2.661740497   1.936520249   
5.211470517   2.656891591   1.718985665   
4.744738823   2.649486938   1.538692471   
4.361978779   2.654754877   1.393293725   
5.732327418   2.656143272   1.666877332   
5.189038841   2.645455424   1.473603424   
4.751689709   2.648692116   1.320408581   
4.358653148   2.646063432   1.185629674   
5.682275998   2.634999684   1.404306571   
5.195701758   2.647367227   1.246393611   
4.72042537   2.62899762   1.100069274   
4.342128684   2.631988511   0.983939787   
5.672944428   2.630672206   1.160545985   
5.129892196   2.61293326   1.010351893   
4.705781053   2.619227646   0.892160401   
4.328944491   2.619556375   0.78918114   
5.660173804   2.625110375   0.921672326   
5.133884131   2.612822626   0.794112825   
4.708332226   2.617419754   0.690275926   
4.311389484   2.605850334   0.597322347   
5.653549758   2.62203834   0.68933938   
5.110207746   2.598751907   0.576983428   
4.682880132   2.601024295   0.488821581   
4.308799647   2.601410795   0.411593371   
5.633948795   2.609961023   0.458040074   
5.088479439   2.586808136   0.366335268   
4.641229419   2.575770385   0.29026231   
4.421083699   2.666044063   0.233354648   
4.35291905   2.624317297   0.044090846   
4.991432967   2.764885697   -0.104182025   
4.400092791   2.649094041   -0.143282098   
4.479906811   2.695122895   -0.337446031   
4.379428456   2.632593321   -0.518222498   
3.511949599   1.933842295   -0.819102611   
3.295643472   1.979456675   -0.825293808   
3.378560863   1.546057056   -0.829628337   
3.17027983   1.594985101   -0.827094288   
2.988452915   1.645172953   -0.83046707   
2.79379101   1.676835769   -0.828249819   
2.859364484   1.3043063   -0.827840321   
2.695492685   1.353465257   -0.824973097   
2.515771448   1.384098955   -0.815713772   
2.433763401   1.461324834   -0.838406589   
5.796651537   2.662049076   1.949673925   
5.240143547   2.65128593   1.725752223   
4.803335679   2.662909164   1.555038331   
4.380835864   2.647847447   1.396715746   
5.764170117   2.64944742   1.673765245   
5.230001694   2.646154795   1.482923802   
4.784451103   2.647747449   1.327248927   
4.387604041   2.645251274   1.191291755   
5.7373169   2.639166734   1.415901581   
5.203799322   2.631414671   1.246393611   
4.748192132   2.625408662   1.104657877   
4.359435068   2.624224166   0.986032505   
5.709571784   2.626404008   1.166385096   
5.179198524   2.618066739   1.018476243   
4.752651867   2.626250098   0.899514721   
4.346276366   2.611861215   0.790876353   
5.687972283   2.616829017   0.924887338   
5.204657571   2.62876936   0.803808773   
4.735445264   2.613506539   0.693072099   
4.348312663   2.60998688   0.601325692   
5.689559423   2.617559092   0.692747574   
5.180334775   2.614442278   0.583992934   
4.723976632   2.604918352   0.492274837   
4.327017745   2.594329617   0.412571394   
5.680895687   2.610570393   0.461203531   
5.11242947   2.579275647   0.367488081   
4.672722925   2.57452909   0.291736542   
4.409529651   2.640663149   0.232316112   
5.263379868   2.897090211   0.108541617   
4.464761679   2.673103578   0.045140421   
5.004272632   2.751968087   -0.104273302   
4.395329989   2.627888019   -0.142863793   
4.429042967   2.646051116   -0.3330017   
3.517865802   1.923058617   -0.819102609   
3.285746427   1.959820351   -0.82130584   
3.329077504   1.511077995   -0.816335073   
3.189099575   1.592211829   -0.830725879   
2.976434251   1.626677469   -0.825736428   
2.801419871   1.669745306   -0.828988916   
2.856304373   1.292338733   -0.825802558   
2.683228937   1.337015712   -0.819960464   
2.540267406   1.387440545   -0.822272252   
2.437411566   1.453360105   -0.838123349   
5.829159009   2.655352768   1.957858475   
5.287693864   2.655000658   1.738721476   
4.829184549   2.657903006   1.560759423   
4.422852663   2.654751123   1.407508359   
5.796905737   2.642981983   1.680908267   
5.262354085   2.642277156   1.489791567   
4.818954631   2.647562569   1.334560869   
4.411576976   2.641284357   1.195594854   
5.787997899   2.640995239   1.42640261   
5.23544672   2.627279718   1.252037216   
4.779417177   2.623560347   1.11004447   
4.386846815   2.622423151   0.990408084   
5.782900648   2.638669535   1.179705898   
5.24090958   2.629105044   1.029020544   
4.797879765   2.632060388   0.906542169   
4.372086646   2.609147817   0.794112588   
5.742772934   2.620723088   0.932486335   
5.231295739   2.622111299   0.806676591   
4.773017044   2.615170851   0.697393495   
4.375065631   2.607820119   0.603916052   
5.730115576   2.614946768   0.696705502   
5.23103385   2.619923963   0.588799453   
4.75902569   2.605237513   0.495091991   
4.37606266   2.605516804   0.416483575   
5.710657218   2.603056951   0.46296917   
5.161366554   2.584130345   0.37043413   
4.741921182   2.593722853   0.29555866   
4.448521068   2.64550467   0.23394165   
5.025855393   2.743788768   -0.104547126   
4.426578662   2.628169719   -0.143616734   
4.485202142   2.660964692   -0.336608705   
3.522027025   1.911322289   -0.818702247   
3.307727129   1.959197669   -0.825293808   
3.346156627   1.506466632   -0.819385994   
3.191351412   1.581123252   -0.830044956   
2.975432684   1.614294858   -0.824080672   
2.799022975   1.656699965   -0.826771683   
2.857609043   1.282381836   -0.825038368   
2.69942333   1.334762818   -0.823653986   
2.551276981   1.3833086   -0.824458429   
2.440208312   1.444898126   -0.837556807   
5.862551291   2.64887612   1.966335444   
5.365371963   2.673424514   1.761558637   
4.870246189   2.661067396   1.571384308   
4.465781384   2.661915381   1.418564069   
5.854323696   2.647496517   1.695194426   
5.301672864   2.641684816   1.498621398   
4.847529889   2.643933208   1.340221877   
4.443101806   2.641675012   1.201936313   
5.8351878   2.640928404   1.436028642   
5.272370123   2.625590847   1.258934906   
4.823581932   2.628578204   1.118423691   
4.435392701   2.633007019   0.999539754   
5.823215525   2.635509951   1.186275045   
5.273639242   2.625304082   1.033860559   
4.816328759   2.622990448   0.908503339   
4.42597096   2.622923683   0.80243435   
5.80846534   2.629200621   0.94183896   
5.27834188   2.625461485   0.812685335   
4.801929739   2.611889836   0.700443881   
4.395009615   2.601466971   0.605564478   
5.780669419   2.616618693   0.701872807   
5.268449502   2.618476633   0.592103934   
4.829121124   2.624386465   0.501544193   
4.40891587   2.606789359   0.418847196   
5.759508775   2.604013198   0.46627979   
5.214850108   2.590929027   0.373700405   
4.790220903   2.601080526   0.29807034   
4.457476299   2.632352263   0.2339868   
5.260767395   2.610308804   0.16198966   
5.060620601   2.742648723   -0.105094781   
4.44323161   2.619653542   -0.143895608   
4.480447535   2.639593586   -0.335642543   
3.538225073   1.906083885   -0.821104314   
3.336476769   1.962424001   -0.83096084   
3.341851095   1.492214431   -0.817206788   
3.185699236   1.566168733   -0.827321261   
3.002612687   1.617137592   -0.830230501   
2.817461225   1.655962372   -0.830713397   
2.860646358   1.273215613   -0.824783675   
2.702639678   1.326049977   -0.823390175   
2.580920157   1.389152145   -0.832656572   
2.447109881   1.438863111   -0.838406588   
5.929121223   2.657080658   1.985919862   
5.392469817   2.666306716   1.767761219   
4.919829626   2.668592156   1.584733364   
4.485549867   2.655081824   1.422249423   
5.945347995   2.666720374   1.719174567   
5.364500939   2.652477573   1.514073545   
4.895783037   2.650795633   1.351307748   
4.461250154   2.633973723   1.204654163   
5.879760641   2.639397538   1.444998423   
5.340892856   2.639296558   1.273357322   
4.861788868   2.63008577   1.125406374   
4.451061378   2.623873907   1.001251956   
5.855492192   2.628503818   1.191201846   
5.330237757   2.633105423   1.043367622   
4.859934997   2.627438553   0.915203915   
4.444215755   2.615346065   0.804283644   
5.814699331   2.610557665   0.94154666   
5.309468156   2.620655282   0.816235983   
4.843959067   2.615524825   0.705400724   
4.435502194   2.607092687   0.610038819   
5.835820774   2.620040237   0.707589846   
5.294305015   2.611102848   0.594106708   
4.875713541   2.630363215   0.505542711   
4.445255497   2.609903218   0.421536797   
5.856649005   2.626321603   0.473489538   
5.235305369   2.581096013   0.374597038   
4.828062442   2.602480786   0.299926787   
4.454328707   2.61209499   0.233399798   
5.272338101   2.595923031   0.162099943   
4.465050392   2.614090188   -0.144341794   
4.497999628   2.631378183   -0.336351063   
3.548375902   1.897529966   -0.822105193   
3.323907516   1.941330428   -0.826343266   
3.349982972   1.483535469   -0.818078448   
3.184362002   1.553398852   -0.82573244   
3.021269714   1.615247659   -0.834015039   
2.815832007   1.643402417   -0.828742511   
2.861000562   1.262871326   -0.823764795   
2.706695287   1.31775211   -0.823390176   
2.589412034   1.383493948   -0.834022891   
2.429151043   1.418292519   -0.830758955   
5.995796337   2.664901654   2.005504281   
5.4204353   2.659470137   1.774245845   
4.932229541   2.655766632   1.586095569   
4.511971877   2.652062705   1.428040493   
5.968520088   2.655148743   1.723511401   
5.399594053   2.649244775   1.521677071   
4.916732264   2.642664093   1.354845879   
4.505440718   2.641457296   1.214392846   
5.948446966   2.648333805   1.459875027   
5.354233415   2.625481986   1.274611407   
4.894006993   2.628138353   1.130992404   
4.472646416   2.618141341   1.004295847   
5.892271467   2.623323589   1.197041074   
5.363938842   2.629312137   1.048380491   
4.881881653   2.619980463   0.91781883   
4.475251955   2.615158702   0.808444526   
5.88774902   2.621679453   0.952068369   
5.354848826   2.622654402   0.821971619   
4.884306871   2.617989127   0.710103411   
4.464063607   2.605486214   0.612864735   
5.86834701   2.613040123   0.710558276   
5.348762959   2.617590622   0.59931377   
4.903074443   2.62573554   0.507542029   
4.479933604   2.611814494   0.424063408   
5.892927024   2.620904652   0.475770161   
5.249474318   2.568091942   0.375045325   
4.86155551   2.601317529   0.301510243   
4.46577498   2.600427934   0.233580416   
5.32338885   2.600798051   0.163423434   
4.626011004   2.689302798   -0.149277744   
4.51813215   2.62458375   -0.337252793   
3.558507917   1.88893153   -0.823106075   
3.335768297   1.934557212   -0.827812462   
3.339327772   1.46657929   -0.814373781   
3.180346654   1.539378952   -0.823462695   
3.028785697   1.607337231   -0.834724632   
2.806605336   1.62649463   -0.82455445   
2.872834202   1.257578009   -0.82605725   
2.755020971   1.330839429   -0.83684509   
2.595343782   1.376444617   -0.834569462   
2.45755196   1.424782879   -0.838973071   
6.03282152   2.659223225   2.015150221   
5.446684432   2.651647338   1.780166614   
4.968356641   2.655589852   1.595085738   
4.547582286   2.654255863   1.436727154   
5.996099882   2.645411577   1.729123775   
5.439075773   2.647943057   1.530506904   
4.947108346   2.639461067   1.360978481   
4.550560867   2.649184279   1.224358027   
5.999390481   2.648990125   1.470376173   
5.431731271   2.642843396   1.291124155   
4.92798825   2.626939751   1.136977544   
4.501877298   2.616740835   1.009051941   
5.967749729   2.63501943   1.210726778   
5.400323862   2.626629299   1.053911922   
4.921242199   2.621689274   0.923702285   
4.49778211   2.609846516   0.811064328   
5.95458632   2.629579822   0.961567144   
5.401182518   2.624832477   0.82784381   
4.925590984   2.620696091   0.714933175   
4.502107187   2.609206236   0.6169858   
5.933617506   2.620319944   0.717484635   
5.380934319   2.612903145   0.602017437   
4.929573031   2.620496986   0.509450392   
4.512939709   2.612538909   0.42642703   
5.927401979   2.614485005   0.47790368   
5.31388791   2.57942936   0.379080142   
4.897732033   2.601378496   0.303257494   
4.478055984   2.589215059   0.233806183   
5.351132114   2.594046972   0.164030031   
4.974470452   2.871494771   -0.160237235   
4.540857979   2.619186199   -0.338347789   
3.562552663   1.877091955   -0.822705711   
3.333215009   1.919435149   -0.825713545   
3.347390646   1.4578863   -0.815245498   
3.178909135   1.526663321   -0.821873874   
3.014790386   1.588075261   -0.829520908   
2.837623232   1.63286124   -0.832191534   
2.86780837   1.244907735   -0.823510045   
2.739954763   1.313209257   -0.831041027   
2.606364102   1.372060493   -0.836755641   
2.452768805   1.411973338   -0.835857359   
6.084764836   2.659854608   2.029765519   
5.492806493   2.653286537   1.792572008   
4.986680312   2.645746087   1.598354935   
4.57490167   2.65141765   1.442781554   
6.053794145   2.648707637   1.743409815   
5.48558349   2.649797405   1.541298921   
4.976652598   2.63564143   1.366875288   
4.572159351   2.643010243   1.227981635   
6.036985727   2.643487927   1.477595608   
5.465353239   2.638495976   1.297185712   
4.976732176   2.633348305   1.146354308   
4.528590253   2.613713337   1.013237377   
6.017235915   2.634839724   1.219120663   
5.468676343   2.63915889   1.065666314   
4.963275218   2.62456484   0.93007599   
4.530595509   2.61033981   0.815533425   
5.993435511   2.624792116   0.966535727   
5.439548566   2.622878413   0.832486952   
4.967814274   2.623637597   0.719890075   
4.547962095   2.617175103   0.622166577   
5.997166471   2.626425887   0.724191111   
5.428365252   2.61538434   0.606423413   
4.954324299   2.614191215   0.51117702   
4.548584416   2.614575097   0.429035149   
5.974684162   2.613473734   0.481067137   
5.358639437   2.580868728   0.381705965   
4.926888846   2.597516242   0.304567932   
4.50677097   2.58740159   0.23488987   
5.368974647   2.582383893   0.164333329   
4.960707971   2.843295695   -0.159512189   
3.56569002   1.86479121   -0.822105193   
3.333146525   1.905802817   -0.824244348   
3.365287166   1.453414107   -0.818514335   
3.180061126   1.515227643   -0.820965976   
3.012760131   1.57521702   -0.82762864   
2.855242001   1.631359881   -0.835886844   
2.90003717   1.248338411   -0.831661098   
2.730904366   1.298583633   -0.827083697   
2.567932843   1.341783905   -0.823092053   
2.462084988   1.407297173   -0.837556808   
6.122729002   2.654106214   2.039703994   
5.553697422   2.661716721   1.809770213   
5.028827017   2.64836843   1.609252212   
4.604754717   2.649880451   1.449625598   
6.106243019   2.649365429   1.756165211   
5.526033748   2.648458253   1.550374085   
5.005359307   2.631213035   1.37253618   
4.594607318   2.637213359   1.231831855   
6.090714586   2.644775495   1.488753121   
5.511346088   2.639881444   1.306173614   
5.010813629   2.631736627   1.15233945   
4.574917675   2.621773705   1.021798274   
6.055052307   2.629289957   1.2251424   
5.486519194   2.627047808   1.067567702   
4.990521792   2.619412315   0.933671461   
4.571172551   2.615071926   0.821389521   
6.055903248   2.630036434   0.975303809   
5.45293199   2.608742962   0.833306338   
4.996046014   2.618976116   0.722813327   
4.594769986   2.625379513   0.627465132   
6.0425745   2.62424782   0.728698771   
5.480350294   2.619744878   0.611330068   
4.9861402   2.611454272   0.513630704   
4.576493657   2.611970696   0.430909716   
6.035739645   2.618149791   0.485334144   
5.430462277   2.594965638   0.386253143   
4.955182405   2.593036653   0.305823772   
4.53204537   2.58345736   0.235792955   
5.083235381   2.896953985   0.050752612   
4.977226828   2.832512844   -0.15976317   
3.575742262   1.856099932   -0.823106073   
3.338127512   1.895085126   -0.824034422   
3.369730276   1.443082725   -0.818514335   
3.185575274   1.505880503   -0.821192951   
3.00981676   1.561938721   -0.825499858   
2.85939059   1.622114178   -0.835640497   
2.889623197   1.233361453   -0.827585572   
2.738364974   1.291845473   -0.828138997   
2.56264416   1.329027784   -0.820086073   
2.456381744   1.394056605   -0.834157909   
6.186194701   2.659101978   2.058119208   
5.585232135   2.655789694   1.817382679   
5.104292012   2.668140379   1.630774257   
4.639667229   2.651056425   1.458049046   
6.156087707   2.648579662   1.768155282   
5.564776255   2.646063024   1.558958703   
5.06682499   2.643715621   1.387160297   
4.626371018   2.636608719   1.238173313   
6.13285614   2.640741387   1.497066536   
5.539733921   2.632614353   1.310981203   
5.044931592   2.629940342   1.158324591   
4.607684573   2.621805783   1.027315397   
6.116370414   2.633642744   1.23590843   
5.522132635   2.623304866   1.072926279   
5.050155906   2.630982635   0.943313764   
4.598074638   2.611771458   0.824779833   
6.091201608   2.623183474   0.979687909   
5.506551246   2.613665142   0.84027102   
5.026055215   2.615081795   0.725990792   
4.618349969   2.620090608   0.629584553   
6.098980156   2.626533272   0.734525722   
5.511735331   2.614004228   0.613933598   
5.033007279   2.616355247   0.517629222   
4.615701828   2.615607592   0.433843844   
6.09229889   2.620505168   0.489233301   
5.433889345   2.576155665   0.385932918   
4.969317057   2.581043958   0.306205986   
4.565162106   2.583810845   0.237102409   
4.974579964   2.810836872   -0.159400639   
3.569226357   1.838838977   -0.820303643   
3.338815542   1.881954485   -0.822775095   
3.363361891   1.428160306   -0.815899243   
3.184889872   1.493619051   -0.819831105   
3.005956928   1.548248359   -0.823134567   
2.860131464   1.610955956   -0.834408708   
2.907642374   1.230520533   -0.831661099   
2.748430583   1.286300227   -0.829985726   
2.595789046   1.336127545   -0.829377302   
2.465660466   1.389338861   -0.83585736   
6.233032423   2.656608828   2.070980462   
5.628930285   2.655425305   1.828942166   
5.130389352   2.66177346   1.63649535   
4.672952049   2.651091049   1.465946067   
6.200648386   2.645236207   1.778614822   
5.601801953   2.642627449   1.567052657   
5.098211096   2.640224527   1.393528816   
4.655631085   2.634394724   1.243835395   
6.175927835   2.636856602   1.505598703   
5.579628129   2.630619524   1.318505935   
5.071252587   2.623906569   1.1625142   
4.649042417   2.626490336   1.034734866   
6.149739986   2.62567556   1.241017739   
5.573811498   2.626926081   1.081396336   
5.080111956   2.62680486   0.947399483   
4.629302847   2.610757165   0.828940715   
6.128333736   2.616915428   0.984364133   
5.567422069   2.621658762   0.848328257   
5.060493569   2.61330337   0.729803818   
4.636749385   2.611757785   0.630997482   
6.140830694   2.6222518   0.738593619   
5.571946443   2.621650907   0.619741475   
5.070215367   2.615970406   0.520628111   
4.644551931   2.613163608   0.435799949   
5.476986244   2.576037362   0.38843065   
5.011825721   2.583629545   0.308335452   
4.598323461   2.583985258   0.238411864   
5.075632913   2.851505607   0.050501062   
4.980564604   2.794094474   -0.159316984   
3.567000115   1.823865688   -0.818502094   
3.349692641   1.87456707   -0.824034421   
3.373124509   1.42010714   -0.817206789   
3.192106194   1.485073336   -0.820512027   
3.021074294   1.544325913   -0.82597294   
2.869289941   1.604538767   -0.835640498   
2.918537433   1.224587494   -0.833698863   
2.756738372   1.279893079   -0.831304837   
2.60672907   1.331658428   -0.831563481   
2.471585107   1.382704296   -0.836423842   
6.309863491   2.666510159   2.093780194   
5.670940698   2.654003879   1.839937793   
5.169326739   2.6618788   1.646302936   
4.697033671   2.645738078   1.47094749   
6.22743574   2.634110823   1.783972088   
5.657298221   2.647619124   1.580297407   
5.139994898   2.641896307   1.402727838   
4.686619452   2.632980109   1.249950357   
6.24329422   2.643002865   1.52003769   
5.636391699   2.636276138   1.330002119   
5.103685954   2.620869401   1.168100348   
4.663072026   2.615576792   1.036066553   
6.203942898   2.626344204   1.25032405   
5.612180711   2.623997335   1.087273474   
5.117112124   2.62607145   0.95279269   
4.654533185   2.60619684   0.832022872   
6.193724995   2.622401015   0.993570666   
5.629290749   2.629722594   0.856521989   
5.092320574   2.609980879   0.733235497   
4.669875229   2.611576469   0.634412113   
6.176304827   2.615025453   0.741891901   
5.611519406   2.619273398   0.623246229   
5.097718203   2.610388692   0.522627428   
4.669079306   2.608137041   0.437348508   
5.561733282   2.595088994   0.393874462   
5.089064167   2.603715461   0.312594382   
4.649849045   2.594201599   0.240669554   
5.100949918   2.845175399   0.050665872   
4.984746605   2.776369282   -0.159177539   
3.568210242   1.810696899   -0.817501213   
3.347736155   1.860007868   -0.822145431   
3.382869322   1.412007424   -0.818514334   
3.19930016   1.476497444   -0.821192951   
3.029263956   1.536808387   -0.826919045   
2.860641418   1.588201402   -0.831698783   
2.877638504   1.197057244   -0.820962842   
2.76065215   1.271429549   -0.831304838   
2.562756066   1.29929579   -0.816260288   
2.476654048   1.375580688   -0.836707084   
6.350649775   2.660812767   2.104595573   
5.719086376   2.655177966   1.852907047   
5.200601606   2.657829128   1.653658507   
4.757333209   2.660510221   1.487267959   
6.323763422   2.652013433   1.809227767   
5.709359644   2.650662064   1.592561179   
5.170583307   2.637595853   1.408860443   
4.707434745   2.625706315   1.253347582   
6.291861615   2.640830047   1.529882471   
5.684371274   2.637493263   1.339408089   
5.178927183   2.639460759   1.183462251   
4.731971543   2.635171249   1.049573916   
6.266366804   2.630129285   1.261272589   
5.672921998   2.631218422   1.097472067   
5.162066701   2.629165289   0.959656701   
4.708276745   2.617348498   0.840190554   
6.248261389   2.622914926   1.001023512   
5.676879424   2.63076678   0.862530791   
5.126826269   2.607836806   0.737048465   
4.704779471   2.612180468   0.638062241   
6.237453639   2.618378052   0.748268526   
5.658352534   2.620021913   0.627552069   
5.120795335   2.60240698   0.524172321   
4.696234801   2.604434627   0.439141595   
5.59864911   2.591427791   0.395923878   
5.113944287   2.596679521   0.313631802   
4.671768088   2.587668528   0.241392021   
5.274115804   2.920583882   0.052296618   
4.973121252   2.749937738   -0.158536149   
3.564997983   1.795334453   -0.815499509   
3.355139044   1.850672846   -0.822565169   
3.416945068   1.413936841   -0.825705755   
3.210013478   1.469512857   -0.822781772   
3.026154041   1.523575154   -0.824790265   
2.858710338   1.575674878   -0.829727956   
2.885767326   1.190066446   -0.822236472   
2.753134277   1.257743435   -0.827875128   
2.622584809   1.319529979   -0.834022891   
2.481702479   1.368439019   -0.836990326   
6.385277997   2.652322108   2.11336461   
5.777749922   2.660897364   1.869259464   
5.235332845   2.655353636   1.66210389   
4.790776563   2.659951516   1.495164978   
6.364904182   2.646334591   1.818666759   
5.762373595   2.653815735   1.605070051   
5.23760759   2.651567466   1.424899695   
4.763185283   2.637675714   1.266030499   
6.361194632   2.647006227   1.544759075   
5.72263988   2.63394308   1.346514753   
5.206237965   2.633289413   1.187851301   
4.757217349   2.630141562   1.053378722   
6.320701974   2.630156468   1.270578783   
5.709600958   2.626975736   1.103003498   
5.196522566   2.626667413   0.9645596   
4.743966555   2.618168737   0.845121946   
6.307425344   2.625019155   1.00920711   
5.718227091   2.628647267   0.867583597   
5.180846818   2.615339073   0.743657607   
4.761473061   2.624579237   0.644655946   
6.310609553   2.62634459   0.756074469   
5.679926489   2.608879414   0.629054106   
5.179438144   2.612246263   0.529352204   
4.762699601   2.622221321   0.444602333   
5.639222127   2.58922988   0.398229504   
5.1450708   2.592660692   0.315051465   
4.711198297   2.590652151   0.243017559   
4.985915966   2.737072654   -0.158675579   
3.570489238   1.784388738   -0.81549951   
3.369376696   1.84506676   -0.824664087   
3.427587451   1.406040001   -0.827231158   
3.209186203   1.457241792   -0.821419925   
3.02125316   1.509507   -0.822188403   
2.868632247   1.569688473   -0.831206091   
2.893880245   1.183037064   -0.823510044   
2.768401638   1.254466528   -0.831304839   
2.636087415   1.316204607   -0.837028871   
2.485047879   1.360358278   -0.836707084   
6.433178322   2.649106261   2.126518402   
5.832138425   2.664288217   1.884202347   
5.299318303   2.667398209   1.679811952   
4.822571251   2.658281013   1.502535568   
6.452554992   2.659588378   1.841371361   
5.796941871   2.64820952   1.612428243   
5.273505166   2.649446686   1.432447551   
4.816492282   2.647919864   1.278034038   
6.394542973   2.637896972   1.550884764   
5.779620832   2.638711892   1.358010939   
5.262459194   2.64148197   1.19882404   
4.789361819   2.628760825   1.058705589   
6.387820521   2.635123981   1.282439748   
5.749890841   2.624168432   1.109226343   
5.232774965   2.624867301   0.969789311   
4.782304516   2.620218927   0.850515689   
6.351113886   2.620370711   1.014906386   
5.764121242   2.628353667   0.873319233   
5.240282624   2.625199934   0.75102939   
4.779085346   2.61520249   0.645951154   
6.33701383   2.614553209   0.758273285   
5.732269638   2.61165471   0.633960818   
