X     Y     Z
26.55435192   47.94237665   1.511701286   
8.075924282   15.92318615   0.322554113   
8.619103845   18.64215235   0.178158937   
6.955051558   14.96627276   1.956810478   
8.857217831   17.36453411   1.778805213   
8.678944219   18.65198714   1.682316505   
8.87820159   17.39067258   1.067734986   
6.789513537   14.57144433   0.726614346   
28.62831228   47.20400132   2.052324664   
26.75001384   47.94797888   1.514458478   
8.14384692   15.93572782   0.323312761   
6.977343934   14.89450554   1.950216773   
8.886778164   17.2912204   1.774079637   
8.741206048   18.63610042   1.683294617   
8.882186229   17.26745762   1.061838059   
6.851598558   14.5876189   0.728465666   
28.72404027   47.03577955   2.048832548   
26.98464739   48.02167469   1.519393981   
8.194529669   15.91422267   0.323385032   
8.928795075   17.24265008   1.771898702   
8.937417204   17.24455899   1.062111049   
6.886488722   14.54576271   0.727427115   
28.5981141   46.50818781   2.029663455   
27.11362979   47.90647173   1.518373788   
8.242394012   15.88723324   0.323348911   
9.003302423   17.25667445   1.776169852   
6.883905205   14.44515874   1.308540904   
9.002297144   17.24006945   1.063530712   
6.901395723   14.46235716   0.72431152   
28.67175075   46.30892825   2.024796855   
27.35997967   47.99762224   1.523915947   
8.288318266   15.85655434   0.32324052   
6.907975211   14.47224548   0.139107792   
7.018350984   14.62999426   1.923959497   
9.076590659   17.26775704   1.78016837   
8.84762806   18.42009768   1.671068989   
9.058866465   17.21943926   1.063967495   
6.973445114   14.49873342   0.727201333   
28.59535609   45.87051127   2.009454143   
27.50461707   47.90912081   1.523778141   
9.075346353   17.23324249   0.351870658   
8.853757253   18.40321999   0.177152736   
6.94476144   14.36342982   1.89169729   
9.136981109   17.25390992   1.781622366   
8.864144551   18.31033634   1.663570725   
9.128485576   17.22332737   1.065933137   
8.869432531   18.29682589   0.919059684   
28.70779542   45.73770995   2.007485282   
27.64746798   47.81758791   1.523557485   
9.133797484   17.21591753   0.35208741   
8.879199849   18.31208674   0.176536856   
6.991840438   14.34830478   1.892521503   
9.200653808   17.24600544   1.783712463   
8.911537809   18.26514003   1.661940657   
9.208090314   17.24544717   1.069045453   
8.881234766   18.17887063   0.914499154   
28.62696957   45.29968446   1.992105257   
27.79554955   47.73513522   1.523640216   
9.192228297   17.19839736   0.352304163   
8.883092888   18.17784867   0.175504638   
7.038453707   14.33213483   1.893228056   
9.264835479   17.23875069   1.785893516   
8.860666043   18.02037527   1.642135226   
9.265212841   17.22503053   1.069536834   
8.877835105   18.03144237   0.908448567   
28.69875718   45.10625473   1.987461579   
27.93984574   47.6461835   1.523529947   
9.254428691   17.1877201   0.352665426   
8.879619403   18.0303005   0.174342302   
9.324791133   17.22338141   1.787256674   
8.872985356   17.90648069   1.634229385   
9.315160592   17.19125606   1.069209247   
8.910912201   17.95937663   0.906190862   
28.71896129   44.83371319   1.979325902   
9.333811161   17.20846574   0.353676977   
8.909999128   17.95281432   0.17385654   
8.876675491   17.77663049   1.624856436   
8.873936826   17.74789069   0.8968892   
28.65760604   44.43718373   1.965692055   
28.11109065   47.27108676   1.517022789   
7.993074748   15.9819788   0.155007554   
8.867556503   17.6228882   1.613283001   
8.90676913   17.67775962   0.894721797   
28.61531549   44.07414087   1.953506959   
28.32839659   47.30554414   1.520910562   
8.039368735   15.95202246   0.154955504   
8.863889346   17.48181577   1.602850519   
8.885439086   17.50159267   0.887181153   
28.68205548   43.88158183   1.94886328   
28.52139981   47.29802199   1.523474754   
8.070612475   15.89251111   0.154617218   
8.873496072   17.36844693   1.594944678   
8.889501263   17.37731068   0.882259359   
28.66988161   43.57048988   1.938944352   
14.06685032   25.19198674   0.521267088   
8.122521064   15.87390792   0.15467794   
8.895720549   17.28088385   1.5894024   
8.90203748   17.27092659   0.878240695   
28.66158996   43.26821869   1.92939688   
28.72504111   46.98140661   1.51892525   
14.11417366   25.09555296   0.520165237   
8.184471538   15.87468846   0.154929487   
8.947319788   17.25085721   1.589157903   
8.946695044   17.22757591   0.877427926   
28.69218802   43.02710209   1.922561419   
28.63321835   46.51000182   1.50651759   
14.21968231   25.10259028   0.521212908   
8.235441093   15.85394106   0.154972864   
9.014049722   17.24982542   1.591603004   
9.017105328   17.23368212   0.879143765   
28.66532417   42.70240664   1.911973846   
28.68729513   46.27919882   1.501885355   
27.35261361   47.94311728   0.997195633   
8.302124992   15.86315269   0.15531115   
9.078072823   17.24325593   1.593559109   
9.070866071   17.20770416   0.879234065   
27.72585964   41.03031552   1.840906751   
28.60685118   45.8348083   1.490304769   
27.61414096   48.05836665   1.001350196   
8.375471917   15.88448772   0.155770881   
9.156617226   17.26375106   1.598041737   
9.143295642   17.21685127   0.881130507   
27.92635905   41.05495331   1.845847737   
28.71063688   45.68842694   1.488402308   
27.69985725   47.86698044   0.999128374   
9.147054062   17.21957617   0.169137789   
9.214705019   17.24524597   1.598938309   
9.207383134   17.20985965   0.882214238   
28.14025647   41.09771209   1.851642978   
28.68071436   45.33149839   1.479634226   
27.80781583   47.71525686   0.997737559   
9.206445281   17.20377476   0.169259233   
9.282213873   17.2441009   1.60146495   
9.277200963   17.21318802   0.883839776   
28.5849229   41.47360572   1.872521055   
28.59194519   44.88582208   1.467943371   
27.92876799   47.58660197   0.996834369   
9.279587242   17.21329847   0.169632224   
9.336974674   17.21904655   1.601790987   
9.334733273   17.19342347   0.884291281   
28.65734433   41.30689035   1.86895467   
28.6728564   44.70953708   1.465048254   
28.03189859   47.42839203   0.995317074   
9.336170277   17.19177749   0.169701604   
28.59169741   40.94348654   1.856472385   
28.61523574   44.31987817   1.455149592   
28.18647874   47.35763523   0.995642217   
13.97772636   25.55157872   0.252644105   
28.66488149   40.78117946   1.853091848   
28.6982275   44.15058025   1.452475131   
28.33523456   47.27693855   0.995768638   
28.60055416   40.42546457   1.840906751   
28.6156984   43.72942195   1.441501082   
28.48789545   47.20262506   0.996039601   
16.81783883   30.30030056   0.300612313   
28.57894845   40.13321214   1.831582319   
28.67713294   43.53123387   1.437861503   
28.6495467   39.97224366   1.828238856   
28.55143828   43.05233867   1.424929917   
14.05136571   22.96253863   0.486350985   
14.22742921   25.26659859   0.25153379   
28.58028181   39.61833656   1.81605376   
28.67228637   42.94791439   1.424378455   
13.99534674   22.71417557   0.48199776   
14.22249767   25.07757214   0.250085218   
28.57604879   39.35741768   1.808103811   
28.63831385   42.61333535   1.416189373   
28.54950079   46.01855763   0.978373857   
17.04754863   29.8450422   0.298148824   
28.62649838   39.17354919   1.803682935   
28.64234709   45.85358625   0.97673008   
14.29332993   24.84594817   0.248645304   
28.57366014   38.85047209   1.792835366   
28.58221335   45.44641713   0.96992025   
17.21581634   29.71478672   0.297897292   
28.43698431   41.48387663   1.387293161   
28.71241276   45.34415414   0.969613167   
14.03479929   24.05386804   0.24157585   
28.55300054   38.32742158   1.776749623   
28.58399183   41.42523456   1.388258279   
28.59611972   38.14049825   1.772143018   
28.5364544   41.08611423   1.379821003   
28.63635756   44.61598825   0.957781823   
28.57817597   40.87793836   1.375767768   
28.56364215   44.20376942   0.950809451   
14.02576136   23.53797723   0.237681134   
28.68907027   40.76963242   1.3750785   
28.64569169   44.0337965   0.949039252   
14.07990037   23.46482434   0.237377537   
28.56244983   37.37389013   1.74866451   
28.58579682   40.35921123   1.364187301   
14.14217833   21.5939521   0.466336997   
17.99721359   29.785708   0.301878733   
28.53441877   37.10072862   1.739971531   
28.56731537   40.07189912   1.357431949   
14.20560987   21.54629027   0.466246696   
18.09007036   29.73291467   0.301904751   
28.58938877   36.93714922   1.736405265   
13.84766955   19.29884557   0.65518266   
28.5941593   43.08185296   0.934155198   
14.07012632   22.96674172   0.23363897   
28.65223678   46.45957349   2.46720164   
28.64300921   36.77278892   1.732801688   
28.54636331   39.52713596   1.344886363   
28.53400766   42.7062802   0.927905293   
28.67478247   46.48523223   0.473783595   
28.78093711   46.34938374   2.466027667   
28.54238516   36.41261751   1.719947946   
13.91175255   19.13912499   0.652646006   
14.1510943   21.03963578   0.458082141   
28.6454933   45.81701119   2.442367007   
28.62425708   36.28721895   1.718164813   
28.65910254   39.17455419   1.338847936   
27.8739652   41.16928769   0.898209484   
28.6369118   45.49219371   2.429723909   
27.61274801   34.78491795   1.651035678   
28.00014098   41.08357822   0.898209484   
28.6255387   45.16617579   2.416990687   
27.62640346   34.58370448   1.645500433   
13.39898736   19.53081555   0.427898558   
14.21999001   22.43150354   0.230386151   
28.64682588   44.89455663   2.4071471   
27.73800977   34.50579458   1.645834696   
28.63536942   38.39548218   1.321173847   
14.09289564   20.40778159   0.448057057   
28.65375912   44.60306029   2.3962199   
27.8487701   34.426749   1.646131885   
28.59941187   38.1027852   1.314115227   
28.4980598   40.9981792   0.902038844   
28.64018721   44.28258487   2.383712223   
27.96056702   34.34889851   1.64650346   
13.97596628   19.97521089   0.440434398   
28.64563233   43.99442876   2.372920682   
28.23615838   34.47090874   1.656496656   
28.66146384   37.70138129   1.306312144   
13.89268391   19.72705644   0.435900541   
28.60631466   43.6406534   2.358561685   
28.30618614   34.34093641   1.654416215   
28.65429836   37.45290003   1.300742448   
13.8831786   19.58564219   0.433714898   
28.67954468   43.46096675   2.353594711   
28.53007298   34.39699652   1.661326063   
28.67759219   37.24600771   1.296606601   
28.59892244   40.08458896   0.889593335   
28.64193946   43.11565475   2.339642217   
28.74496185   34.44049592   1.667678606   
28.68886676   37.02510133   1.291974366   
13.90628183   19.36527326   0.430716427   
28.60304182   42.77181258   2.325734784   
28.87234057   34.37816525   1.668941748   
28.64311821   36.73274296   1.284833014   
28.5678939   39.52587585   0.881067486   
27.76678551   41.24689172   2.247438361   
29.09829387   34.43215341   1.675888669   
13.38800943   17.06096066   0.598189891   
13.92132599   19.13727952   0.427537294   
27.81361905   41.04408125   2.241026332   
29.30543019   34.46223975   1.681721103   
13.41426884   16.9868586   0.597031832   
13.83821831   18.90086406   0.423202129   
28.0007713   41.0485092   2.245948245   
29.43960751   34.40557715   1.683355701   
13.50301386   16.99179627   0.598658622   
28.60226451   38.60131981   2.627157836   
28.14466949   40.98876366   2.247393062   
29.67803571   34.46958211   1.690934193   
27.61023529   34.52591366   1.21940297   
28.57789366   38.32207963   2.614107995   
28.40263174   41.09370357   2.257913997   
29.81047538   34.40933583   1.69245733   
27.72981627   34.45817403   1.220009625   
13.6629302   18.30556568   0.4126713   
28.63239632   38.15036927   2.608374744   
28.49890503   40.96372796   2.25556605   
30.08006578   34.5060387   1.701744688   
27.8536458   34.39546707   1.220809162   
28.53385609   37.77710668   2.58882752   
28.57287269   40.80245392   2.251502205   
30.21939473   34.45190569   1.7036394   
13.9069005   17.06581251   0.607233704   
28.62967934   37.66315309   2.587025552   
28.56842433   40.53088287   2.241342475   
30.32825472   34.3627777   1.703825128   
13.96996749   17.03620597   0.607702494   
28.61818671   37.61531822   0.853882404   
28.58674575   37.36815508   2.572774558   
28.64408162   40.37460839   2.237549474   
30.53307053   34.38164868   1.709397566   
14.02407657   16.99557985   0.607785166   
13.52609466   17.66576446   0.401959838   
28.50268104   37.02234643   2.554974465   
28.64125804   40.10930719   2.227706124   
30.73495569   34.39586295   1.714784157   
14.04741624   16.91786644   0.606544435   
28.70015679   37.24656156   0.849493059   
28.52195161   36.8131699   2.546565918   
28.57819168   39.76247562   2.213302066   
31.03209097   34.5146811   1.725446117   
14.13001813   16.91150993   0.607867897   
13.43020904   17.31932793   0.395944806   
28.55801344   36.62706197   2.53974071   
28.58587161   39.51678045   2.20449703   
31.13247082   34.41338463   1.725148928   
14.29183693   16.99891785   0.612582863   
28.4261627   36.22819803   2.518118291   
28.51469876   39.16480514   2.189731767   
31.33880484   34.42855955   1.730721366   
14.39686343   17.01757074   0.614843787   
13.35220161   17.00226521   0.39056197   
27.9406656   35.38536929   2.465482383   
28.55205488   38.96432785   2.183410336   
31.57724621   34.47742692   1.738039863   
29.32566803   34.44901502   1.247885645   
13.43963735   17.00593549   0.391591581   
27.60929458   34.74599473   2.426824478   
28.57421979   38.7446943   2.176005055   
15.69549981   17.03183045   0.861014199   
29.48454176   34.42113458   1.250146568   
13.51788626   16.9974895   0.392350228   
27.66961946   34.60342073   2.422783999   
28.60662038   38.54053429   2.169457605   
15.74835807   16.9843311   0.861051333   
14.56788922   16.90176007   0.61547798   
27.63160987   34.52622455   0.798916193   
27.7850409   34.53003882   2.423602967   
28.59140294   38.27411574   2.159388472   
32.04047605   34.34316671   1.746064079   
29.81373607   34.37626024   1.255137265   
27.73050758   34.43272446   0.798717471   
14.65671058   15.6372515   2.370689672   
27.89964305   34.45549452   2.424367337   
28.48837774   37.89317348   2.142816951   
32.25785648   34.36419475   1.752156627   
30.07877368   34.46764951   1.261837423   
27.85678808   34.37311905   0.799313577   
28.16668713   34.567902   2.438345342   
28.51830322   37.6916757   2.136360099   
30.22065472   34.41651895   1.263353885   
27.98675638   34.31771471   0.800018044   
28.37073999   34.60100683   2.446808724   
28.67919573   37.66361427   2.139746596   
30.3512509   34.35210667   1.264401615   
28.10522998   34.24792244   0.800397368   
28.48247999   34.52073614   2.447300105   
28.55216528   37.25907004   2.121730258   
30.5640929   34.37985472   1.268868387   
28.30502809   34.27640549   0.803088756   
12.28953235   12.78220592   1.308055268   
28.67627502   34.53920616   2.454835086   
28.44793614   36.88809626   2.10556524   
30.78205516   34.41183813   1.273528159   
14.11109313   16.98166078   0.398889096   
12.28153828   12.69570105   1.30305265   
28.86276771   34.5476179   2.461714892   
28.53524953   36.76750125   2.103668621   
30.90487217   34.33655332   1.274245084   
14.2323923   17.02112852   0.400839927   
12.31834308   12.65581756   1.302831874   
28.96669409   34.45661208   2.461551099   
28.51017708   36.50342515   2.093554189   
31.24559517   34.50164507   1.28392309   
14.31222566   17.01028148   0.401616635   
12.28175217   12.54101443   1.294886456   
29.11354244   34.41636953   2.4650456   
28.56462287   36.34274372   2.089354923   
15.57499329   17.09235126   0.637839437   
14.27260555   16.85793505   0.399051668   
12.27257181   12.45497035   1.289883838   
29.45004701   34.59833416   2.484538226   
27.56667656   34.85243922   2.008529594   
31.48507702   34.34022403   1.285081208   
14.45393552   16.9662861   0.402664306   
12.27561759   12.3818486   1.286205396   
29.65283591   34.62081881   2.492674022   
27.59259588   34.6660909   2.002659728   
15.69109924   17.00895241   0.638308168   
14.52674303   16.94615351   0.403242322   
12.25156761   12.28199542   1.27973126   
29.81236515   34.59170314   2.497151284   
27.69319832   34.57426044   2.002253225   
15.74320797   16.96073236   0.638308168   
14.58388833   16.90756266   0.403386833   
15.02537177   14.98361859   2.347162049   
12.3075586   12.26265146   1.281644091   
29.89349184   34.47140963   2.495076565   
27.80666288   34.49846807   2.00279515   
32.01745606   34.28203354   1.293876827   
14.75693458   17.00243388   0.406728508   
30.20590264   34.61652856   2.512276082   
27.93125198   34.43627238   2.004149844   
11.96156119   12.72908438   0.481805474   
14.89781527   17.05874531   0.409167053   
30.36005403   34.57847061   2.516261964   
28.03360992   34.34654711   2.003924062   
14.89662136   16.95212254   0.407703938   
12.28078546   12.92268769   1.144093181   
30.63391535   34.67523275   2.530130772   
28.36901052   34.54060971   2.020314862   
11.90095328   12.50987737   0.476263375   
14.99227114   16.955778   0.408896091   
30.75143224   34.5937733   2.531058936   
28.50539353   34.49037256   2.022482325   
11.94788755   11.60833163   0.619282317   
11.94065858   12.47475069   0.476318509   
15.07279754   16.94182207   0.409672828   
30.9166643   34.56550321   2.535918384   
28.65067713   34.45037895   2.025281836   
11.94031299   11.52997237   0.617053342   
11.92756182   12.38477827   0.474278152   
30.83292178   34.44283415   0.835150929   
12.08593227   11.6064416   1.236104951   
12.13544871   12.53663747   1.119756247   
31.14145999   34.60260283   2.545637517   
28.85112215   34.47570169   2.031964471   
11.95576299   12.33807697   0.473892123   
15.37721329   17.0718895   0.415091755   
12.15394851   11.6002929   1.239415512   
31.38889113   34.66306852   2.557158618   
29.00694566   34.44662791   2.035486391   
11.95308518   12.25982628   0.472292901   
15.47853166   17.07871348   0.416410388   
31.55695843   34.63450785   2.562181859   
29.14736442   34.3986305   2.037924698   
11.85881953   11.24220999   0.607468796   
11.95284022   12.18456351   0.470803977   
15.54904539   17.05109368   0.416898074   
31.69073255   34.56770588   2.564420609   
29.40118551   34.48312624   2.048264911   
11.83215935   11.14821057   0.604348195   
11.96909958   12.12649173   0.469976784   
15.65198118   17.05856251   0.418252828   
12.21144174   11.44225281   1.234486446   
31.73367397   34.40206233   2.559342532   
29.59530559   34.49587622   2.054405859   
11.90131777   11.14464428   0.606131387   
11.96891477   12.05212171   0.468515456   
15.70356447   17.00972746   0.418234767   
16.25382042   16.28828772   2.315844511   
31.89205099   34.36162962   2.563601404   
29.71078851   34.41625819   2.055083205   
11.90326606   11.0781231   0.604496848   
11.92457965   11.93402671   0.465344579   
16.29736964   16.23202633   2.314943289   
32.0995451   34.37308928   2.571791796   
29.94398438   34.47200958   2.063888242   
11.90565312   11.01237441   0.602899385   
11.89947733   11.8360562   0.46294576   
11.73796066   12.55878515   0.310560169   
12.33498829   11.35656688   1.854619782   
12.38583219   12.2607078   1.753981566   
32.26228424   34.33557306   2.576378255   
30.08313171   34.41834125   2.066191127   
11.90333389   10.94265748   0.601079059   
11.87317628   11.7376499   0.460519344   
11.64560877   12.38359803   0.307110103   
12.37270485   11.3213547   1.855059545   
12.38083375   12.18078296   1.747973418   
32.73652489   34.62679323   2.605754046   
30.36868996   34.53067436   2.078518083   
11.88299316   10.85688163   0.598367166   
11.86135778   11.65422872   0.458671988   
12.3191396   11.20309559   1.841866415   
12.38613313   12.11143917   1.743467307   
30.70818134   34.70142679   2.094457318   
11.89701053   10.80290795   0.597401273   
11.77547509   11.49905694   0.453984619   
12.36156272   11.17257928   1.843075793   
12.37613943   12.02761483   1.736858343   
30.80984825   34.60182888   2.094141175   
11.88632688   10.72685671   0.595209432   
11.79061326   11.44338298   0.45321259   
12.3639869   11.10604173   1.83834831   
12.37576742   11.95364481   1.731651282   
12.35086784   12.83445077   1.625406698   
30.9485244   34.5436024   2.0963537   
11.88793524   10.66231536   0.593649161   
11.80336253   11.38564149   0.452357829   
12.35870359   11.0329753   1.83252136   
12.37649409   11.88116733   1.726644491   
12.41027436   12.81724625   1.628042058   
12.06953729   11.5832585   1.073580052   
31.17007387   34.57685723   2.104165484   
11.82659927   10.54201075   0.588968348   
11.72783596   11.24353323   0.448139221   
12.35680686   10.963344   1.827244084   
12.37185355   11.80399111   1.72093675   
12.3849107   12.71277295   1.619590596   
31.44446928   34.66678808   2.11549895   
11.8596333   10.50633995   0.589005482   
11.77168372   11.21646386   0.448497654   
12.35981784   10.89843049   1.822736424   
12.37407571   11.73380247   1.716230249   
12.39666789   12.64698073   1.616046504   
31.56683852   34.58786619   2.116582563   
11.89931167   10.47650944   0.589376998   
11.55853826   10.94591287   0.439095349   
12.34385842   10.81722439   1.815480272   
12.38177774   11.66916997   1.712324953   
12.39624954   12.56918181   1.61095734   
31.70118304   34.52175893   2.118479182   
11.93666128   10.44455984   0.589636994   
11.43774765   10.76515701   0.433249951   
12.34400857   10.75058087   1.81064276   
12.35724756   11.57467315   1.704013681   
12.39056123   12.48655734   1.605232195   
12.02320156   10.46196407   1.175704823   
31.77711596   34.39205407   2.11649244   
11.99051624   10.4269058   0.590714347   
11.43494952   10.69655517   0.431898893   
12.32657976   10.66907811   1.80327658   
12.34754804   11.4946741   1.697805261   
12.36689238   12.38646828   1.597235159   
12.12011552   10.4811296   1.182031737   
31.95321997   34.3704931   2.121188333   
12.0254733   10.39268449   0.590862942   
11.45526661   10.64985162   0.431430161   
12.3389095   10.61370982   1.800308149   
12.34696953   11.42362815   1.692898607   
12.38789653   12.33160726   1.595054106   
12.11364081   10.4107451   1.178279743   
32.12676146   34.34525579   2.125703742   
12.08383459   10.37853037   0.592163158   
11.5407474   10.66350135   0.433415384   
12.34874836   10.55642936   1.797009867   
12.34240857   11.3493273   1.687491274   
12.35346173   12.2221017   1.585784749   
32.33193921   34.35273817   2.132296254   
12.09889633   10.32713618   0.591345918   
12.38562208   10.52235557   1.797669571   
12.34118077   11.27851786   1.682584619   
12.35468582   12.14853443   1.58115013   
12.08403665   10.2505354   0.58907975   
12.48391827   10.54009201   1.807234566   
12.33963548   11.2078238   1.677677965   
12.39474833   12.11335831   1.5815136   
12.29345078   10.36348879   0.597735596   
11.5258623   10.45474811   0.429224343   
12.55807422   10.53687998   1.813281339   
12.34072719   11.13991161   1.673171853   
12.31827095   11.96495056   1.56706436   
12.42237983   10.41379262   1.195789203   
12.38110657   10.37257174   0.600447547   
11.56307989   10.42402337   0.429417343   
12.63843395   10.53840385   1.820207755   
12.33855551   11.06944164   1.668265199   
12.3219633   11.89528581   1.562884049   
12.34025431   12.80669031   1.454350911   
12.04195261   11.61685334   0.914959638   
12.51194009   10.41701975   0.60523982   
11.59947265   10.39250135   0.429582775   
12.69978803   10.52367992   1.824385564   
12.32047378   10.9851844   1.661255693   
12.33181167   11.8319163   1.559521631   
12.36769266   12.75660642   1.452965342   
12.51381314   10.35374065   0.603790951   
11.69251948   10.41137624   0.431843729   
12.76193854   10.50930879   1.828673285   
12.31837286   10.91565949   1.656449174   
12.32336958   11.75141691   1.553887323   
12.37336532   12.6843573   1.449053132   
12.43067546   10.22741857   1.187475905   
12.55864076   10.32608887   0.604422521   
11.76782425   10.41387748   0.433442951   
12.87719359   10.5380904   1.840547125   
12.31073596   10.84164848   1.650941705   
12.33551167   11.69094755   1.550888376   
12.33472839   12.56738186   1.44000622   
13.484988   11.02565931   1.284954653   
12.495854   10.21037092   0.599890303   
11.78770825   10.36716243   0.433001787   
12.94956203   10.5311435   1.846264164   
12.31174517   10.77565117   1.646635865   
12.29737993   11.58340007   1.541619019   
12.32490485   12.48054735   1.434382521   
13.49011205   10.96096684   1.282232628   
12.80717284   10.39938811   0.61330123   
11.82698532   10.33752862   0.433277518   
12.99881737   10.50510969   1.848682802   
12.25841412   10.662734   1.635120129   
12.30886793   11.52315772   1.538620189   
12.33573984   12.41510284   1.431203806   
13.13959106   10.60940335   1.245815978   
12.88723437   10.39895401   0.615604531   
12.00580222   10.42902573   0.438654215   
13.0526848   10.48260726   1.851761263   
12.27375727   10.61011001   1.632817006   
12.28948175   11.43446345   1.531804517   
12.29766759   12.30107535   1.422401392   
13.41165551   10.76127397   1.268475279   
12.92609446   10.36499437   0.615938854   
12.08692484   10.43460342   0.440446437   
13.13217189   10.48033219   1.858467738   
12.30096804   10.56786577   1.632116056   
12.31572992   11.38859297   1.530713991   
12.29293966   12.22112745   1.417511188   
13.16389416   10.4962496   1.241990432   
14.0963267   12.10685376   1.192510987   
13.10788759   10.4448576   0.623071563   
12.15984788   10.43262036   0.441935361   
13.21254699   10.47828592   1.865284126   
12.31138759   10.51134212   1.629212117   
12.27142248   11.27797659   1.520899371   
12.31974119   12.17284825   1.416288697   
13.55403618   10.7394754   1.275684939   
13.07484475   10.35310516   0.619988155   
12.21689998   10.41666785   0.442845256   
13.33362696   10.50783481   1.877817671   
12.3572334   10.48510903   1.631014561   
12.26699396   11.2046794   1.516082958   
12.30440657   12.08331695   1.410257422   
13.40278411   10.55285912   1.258396254   
13.23298515   10.41243276   0.625969243   
12.28998253   10.41403431   0.44433418   
13.41197198   10.50303417   1.884304207   
12.48442392   10.52732302   1.643531537   
12.26002017   11.12950728   1.510993913   
12.2665281   11.9724148   1.401699506   
13.38090098   10.46928727   1.253320083   
13.22314456   10.33916237   0.624000323   
12.35934109   10.40783112   0.445685238   
13.48884277   10.49663126   1.89057092   
12.56013141   10.525399   1.649239397   
12.25270029   11.05448486   1.505904869   
12.2545553   11.88753654   1.396157229   
13.43027846   10.44165215   1.254938588   
12.42089923   10.4057705   1.03989258   
11.95125948   11.58118432   0.752216567   
13.40710219   10.41687761   0.631170165   
12.4540742   10.42247045   0.447946191   
13.56029685   10.48559912   1.896068018   
12.62218145   10.51164746   1.653144693   
12.25096807   10.98492987   1.501542763   
12.25796245   11.81806301   1.392408096   
13.50486743   10.43332407   1.258911238   
13.45165378   10.38546667   0.631764543   
12.51673345   10.40978027   0.449049116   
13.63653947   10.47785994   1.90222482   
12.70496164   10.51474253   1.659753656   
12.23033699   10.89892682   1.494908885   
12.265377   11.75281809   1.38914796   
13.58190369   10.42645788   1.263104664   
12.44145546   10.29373587   1.036306167   
13.53657456   10.38490318   0.634253573   
12.59946578   10.4133607   0.450868905   
13.7081207   10.46613238   1.907721918   
12.77635126   10.50794698   1.664860581   
12.25374102   11.66976809   1.38376876   
13.65585306   10.41679733   1.26700388   
12.46681136   10.25044716   1.035793806   
13.62241295   10.3845208   0.636779738   
12.71014566   10.43937243   0.453681321   
13.79401103   10.46487797   1.915198009   
12.8593749   10.510258   1.671469545   
12.26559887   11.60950998   1.38107916   
13.77278852   10.43931174   1.274875746   
13.25861829   10.83348114   1.098813678   
13.65739396   10.34509204   0.636928332   
12.78857814   10.43825398   0.455335677   
13.89669094   10.47575802   1.924982946   
12.92476904   10.49772979   1.675775384   
12.19820849   10.67050056   1.478914693   
12.25397256   11.52743657   1.37578138   
13.82068385   10.40900776   1.276347146   
13.34602242   10.83678693   1.103296782   
11.95619711   10.45143418   0.868384449   
8.710063887   6.555671752   0.405264002   
12.86634605   10.43612267   0.456962467   
13.99956558   10.48610675   1.934767764   
12.99562693   10.48927465   1.680782175   
12.21585639   10.6199598   1.477097228   
12.22157244   11.42648519   1.368201576   
13.91163965   10.41077478   1.281791196   
11.99197462   10.41797763   0.868657439   
12.96134318   10.4474133   0.459195853   
14.08509305   10.48286742   1.942133945   
13.0913911   10.50040315   1.688993311   
12.23406324   10.5700618   1.475370483   
12.22736608   11.36179824   1.364941441   
14.02114174   10.42576819   1.288927421   
13.38034344   10.72909758   1.100670959   
13.02064061   10.42947184   0.460160912   
14.15314939   10.46619929   1.947081368   
13.14766472   10.47941468   1.692097521   
12.26718949   10.53312705   1.475461439   
12.2043226   11.27081278   1.35850259   
14.0939695   10.4129266   1.292679415   
14.08200076   12.08286353   1.014662294   
13.09324672   10.42184812   0.461594701   
14.2532751   10.47275301   1.956426541   
13.20393181   10.45818008   1.695201731   
12.31384086   10.5077241   1.477188066   
12.14412215   11.14637814   1.347988688   
14.17810515   10.40799754   1.297461376   
13.41541081   10.62263436   1.098173167   
13.14946312   10.40085285   0.462449432   
14.36641863   10.48816719   1.967530649   
13.32352207   10.48654314   1.706416941   
12.36576712   10.48664316   1.479550795   
12.19887863   11.12787478   1.350270711   
14.26878891   10.40735226   1.302831875   
13.39852852   10.54254955   1.094138409   
14.25871349   12.08337972   1.022033481   
11.90067754   10.84444396   0.727743199   
13.21431902   10.38640639   0.463607491   
14.44438799   10.47730752   1.973797362   
13.38933193   10.47197551   1.71072278   
12.44204843   10.48587925   1.484821633   
12.18201235   11.04420684   1.344647013   
14.39432488   10.43141178   1.311365948   
13.40250801   10.47926459   1.091832782   
13.26266507   10.35873809   0.46418652   
14.53129631   10.47245968   1.981273453   
13.46696177   10.46626075   1.716530657   
12.53294587   10.49689412   1.491819099   
14.46915513   10.4180862   1.315265046   
13.45823594   10.45646493   1.093754197   
12.46501637   10.43259912   0.888860075   
14.62235044   10.47007123   1.989299338   
13.57696901   10.48510207   1.726444219   
12.59647394   10.48451436   1.495544986   
14.52457067   10.39047348   1.317398534   
13.49736246   10.42061604   1.094330574   
13.26540691   11.03345683   0.943516283   
14.72567473   10.47586327   1.998974126   
13.63038538   10.45975383   1.729147886   
12.69303932   10.49913783   1.503178553   
14.62872774   10.39728446   1.323946224   
13.57915081   10.41742564   1.098365332   
13.29534605   10.98952669   0.943243294   
14.82592552   10.47882562   2.008209507   
13.71779563   10.46011941   1.736157393   
12.7905814   10.51389857   1.510902957   
14.71921217   10.39377368   1.329243169   
13.64596759   10.40233616   1.10118332   
12.94475305   10.63305835   0.916051655   
12.14347948   10.7294117   0.73243921   
14.87183233   10.44300093   2.01007847   
13.78313039   10.44322054   1.740363097   
12.83588896   10.48531857   1.512447909   
14.86287941   10.42703454   1.339322076   
13.74225307   10.40922877   1.106370951   
11.90835716   10.45678839   0.716319313   
15.00814288   10.47011765   2.024151126   
13.89856755   10.46372179   1.750877356   
12.90047041   10.47225002   1.516264633   
14.92507158   10.40248637   1.342044101   
13.82276113   10.40362623   1.110277677   
13.28581428   10.7773698   0.935489862   
11.9561882   10.43399817   0.717267504   
15.11535036   10.47611319   2.034265797   
14.02222651   10.4895721   1.762392973   
13.0302013   10.51140652   1.527715043   
12.09425499   10.50040006   1.309763395   
14.98643331   10.37708643   1.344692575   
13.92654093   10.41495989   1.116041685   
13.21931174   10.65634629   0.92850086   
11.98889694   10.39792322   0.717312684   
15.1711607   10.4460368   2.037454168   
14.098262   10.47914834   1.767900443   
13.06705018   10.47511872   1.528260307   
12.15659692   10.48929038   1.313023531   
15.07324976   10.36892877   1.349621758   
13.9880655   10.39420801   1.118411328   
13.43273946   10.76057106   0.941168456   
12.36228959   10.61127034   1.93173075   
15.23267042   10.41964525   2.041411918   
14.13995013   10.44293997   1.769102073   
13.13729307   10.46538495   1.53271325   
15.18815213   10.37946869   1.357052193   
14.09053721   10.40340617   1.124047304   
13.12820677   10.45065791   0.917580514   
12.37287675   10.5546031   1.928316119   
15.34924072   10.43040297   2.052736084   
14.25855609   10.46308314   1.77991674   
13.23024308   10.47324354   1.539801554   
15.29996003   10.38715887   1.364188418   
14.15698882   10.38551033   1.126801158   
13.37243084   10.57821035   0.932377546   
12.41125888   10.52173189   1.929258111   
15.39517352   10.39271768   2.054605049   
14.37018228   10.47732009   1.789830184   
13.30223053   10.46400553   1.544436173   
15.34663791   10.35020834   1.365512596   
14.21297785   10.35966357   1.128722455   
13.38990659   10.5254105   0.931340127   
15.64079068   10.48881557   2.083080332   
14.43932342   10.46003511   1.794436549   
13.37350096   10.4538109   1.548980073   
12.4841852   10.50747046   1.334377491   
15.46862957   10.36358115   1.373531685   
14.35542527   10.3962013   1.137496616   
13.386724   10.45662127   0.928883045   
14.50930206   10.44300369   1.799142932   
13.47078779   10.46343639   1.556522684   
12.52247891   10.47423628   1.335029565   
15.5949969   10.37906616   1.381918535   
14.45124584   10.39815582   1.142556096   
13.43767212   10.43019607   0.930193512   
12.42817092   10.38429841   0.732032826   
14.59954457   10.4401113   1.80635271   
13.56747014   10.47195553   1.563974575   
12.55378804   10.43513123   1.334948027   
15.69248815   10.37462207   1.387730465   
14.51311674   10.37524505   1.144925739   
13.49728167   10.41026436   0.932104556   
12.45074771   10.33846234   0.73149096   
14.71018254   10.45116913   1.816065883   
13.62561086   10.45028125   1.566973405   
12.57191179   10.38514183   1.333481036   
15.76508968   10.35325485   1.391335354   
14.63193554   10.39250291   1.151778603   
13.57433028   10.4034284   0.935216873   
12.39842114   10.2309111   0.726569225   
14.79257478   10.44156355   1.822274303   
13.71701209   10.45370185   1.573789194   
12.71849656   10.44074893   1.345625006   
15.8661071   10.35006448   1.397441493   
14.71348876   10.38266197   1.15568533   
13.67211765   10.41194555   0.939748793   
12.4158455   10.18142329   0.725756456   
14.90029966   10.44926035   1.831586933   
13.82285306   10.46748116   1.582240656   
12.84623209   10.47980303   1.355731451   
15.96808987   10.34689396   1.403621302   
14.80328956   10.37814717   1.16023245   
13.75336275   10.40730666   0.943134098   
13.04951144   10.63426145   0.760886063   
14.98126941   10.43762505   1.837595081   
13.88195749   10.44538218   1.585330442   
12.876775   10.43908699   1.355568492   
16.10290597   10.36424441   1.412670359   
14.9054845   10.38173273   1.165740277   
13.82991976   10.39866701   0.946191816   
13.30100303   10.77146863   0.773619404   
15.07212515   10.43238496   1.844804859   
13.97694789   10.44985247   1.592509584   
13.00886242   10.48019232   1.366082393   
16.17496004   10.34057714   1.416201578   
14.99470968   10.37570415   1.170223381   
13.89615343   10.38188668   0.948539643   
13.11218143   10.55211122   0.760750582   
10.21838443   6.528045198   0.450772148   
15.1860457   10.44247121   1.85481844   
14.06969734   10.45205671   1.599416212   
13.05262448   10.44957554   1.367305003   
16.26975089   10.33099926   1.421719298   
15.0749915   10.36300638   1.174002076   
14.00410575   10.3957459   0.953726797   
13.42691908   10.73769435   0.777096262   
15.28538   10.44185326   1.863029575   
14.1569824   10.44964888   1.60568662   
13.09944131   10.42127136   1.368853533   
16.42537018   10.35924104   1.432533965   
15.18665228   10.37129977   1.18021443   
14.10745104   10.40548322   0.958586364   
13.24706994   10.52739575   0.764814427   
15.36591759   10.42787322   1.868937706   
14.26526468   10.46211728   1.614319758   
13.18686383   10.424919   1.374640309   
16.47482192   10.31991765   1.434078917   
15.23326505   10.33474456   1.181367184   
14.15944306   10.37690847   0.959951429   
13.34045627   10.53499639   0.768336406   
15.46136227   10.42350891   1.876648163   
14.33995112   10.44938663   1.619136289   
13.29402565   10.44352017   1.382464611   
16.64104464   10.35308952   1.445776329   
15.40144481   10.3799868   1.19193461   
14.23964305   10.368685   0.963227479   
13.49767122   10.59207645   0.775515904   
15.54700435   10.41201285   1.88315699   
14.4251806   10.44388756   1.625134066   
13.35035774   10.42169786   1.384991252   
16.7270264   10.3355362   1.450484738   
15.47302138   10.35933569   1.195008661   
14.34338753   10.37704009   0.968087046   
13.43478211   10.47628578   0.770052304   
8.552983531   5.281128636   0.373686922   
15.66171463   10.41937745   1.893170571   
14.4886827   10.42226269   1.628678159   
13.46968304   10.44849856   1.394038164   
16.79350672   10.30555628   1.453501091   
15.55458791   10.3449758   1.198851372   
14.43920717   10.37902736   0.972400575   
13.4660704   10.4344067   0.770007124   
8.679891148   5.32277578   0.378516358   
15.7591846   10.4146159   1.9010813   
14.59512895   10.43103605   1.637038783   
13.55140606   10.44545773   1.399172866   
16.9783335   10.3474069   1.466743455   
15.6595254   10.34561417   1.204487348   
14.50267169   10.35731094   0.97453001   
13.51226669   10.40401453   0.770819892   
8.80542668   5.362654113   0.383271497   
15.84928479   10.40444015   1.908090805   
14.70744907   10.44328923   1.646035508   
13.66014017   10.46261945   1.407078825   
17.04924509   10.31902395   1.470127687   
15.72289532   10.31832878   1.206921006   
14.62477211   10.37690564   0.980590849   
13.58775907   10.39589724   0.77330332   
9.369087121   5.666601304   0.407047165   
15.97614268   10.41772176   1.919506287   
14.78010606   10.42682142   1.650579289   
13.71120956   10.43514721   1.409034812   
17.15604273   10.31188006   1.476601705   
15.89994248   10.36486905   1.21806481   
14.72917254   10.38319167   0.985450356   
13.64583275   10.37411274   0.774793436   
9.407844518   5.65069449   0.407975924   
16.09905448   10.42761763   1.93042109   
14.86911114   10.42143802   1.656940654   
13.78529224   10.42489536   1.413354598   
17.26809442   10.30724601   1.483517156   
15.97019933   10.34099078   1.221010829   
14.77895147   10.35055621   0.986651628   
13.74853856   10.38578972   0.7788121   
9.383940998   5.597233188   0.406192732   
16.18033958   10.40993878   1.936329103   
14.9672116   10.42186521   1.66430159   
13.90326413   10.44721616   1.422156894   
17.45405899   10.34575214   1.496759521   
16.09417592   10.35132824   1.22805574   
14.88358404   10.35592167   0.991511135   
13.83226928   10.38254159   0.781747093   
9.37785428   5.554666906   0.405189705   
16.29855595   10.41543402   1.946643209   
15.03760803   10.40252545   1.66857274   
13.99514748   10.44923312   1.428269707   
17.497748   10.29923701   1.497789488   
16.19986414   10.34918192   1.233691598   
15.00809997   10.37436947   0.997681169   
13.94093304   10.39739123   0.786081841   
9.277706924   5.456967525   0.400137377   
16.36067456   10.3845769   1.950248098   
15.19420251   10.44207587   1.682385877   
14.10318243   10.46266163   1.436012589   
17.63086237   10.30488954   1.506470666   
16.25681887   10.3154726   1.235613014   
15.08183676   10.35710394   1.00046578   
14.02252884   10.39144876   0.788881411   
9.284049966   5.422430232   0.399691564   
16.51870729   10.41392694   1.965268468   
15.31088021   10.4532486   1.691746072   
14.18174616   10.45364339   1.440739714   
17.76331228   10.30932017   1.515078291   
16.36183998   10.31184006   1.241184856   
15.13663569   10.32654116   1.001994638   
14.10341338   10.38451053   0.791635801   
9.183076303   5.325739355   0.394639236   
16.58675435   12.16051947   2.438624623   
16.66442545   10.43448391   1.978786802   
15.36842744   10.42355433   1.694563226   
14.25315084   10.43894209   1.444733464   
17.91410066   10.32349138   1.525230751   
16.53212604   10.34843139   1.251688148   
15.30545519   10.3730456   1.011058479   
14.18841892   10.38012326   0.794615915   
9.303290497   5.357383233   0.399097186   
16.64565449   12.12536216   2.441803696   
16.73438111   10.4069545   1.983292914   
15.46062378   10.4169779   1.701197222   
14.35522205   10.44618472   1.451824271   
18.0002216   10.29968703   1.529865608   
16.5960023   10.31768453   1.254121924   
15.39187362   10.36284536   1.014662294   
14.25332882   10.36062681   0.796467235   
16.71415162   12.09694339   2.446395877   
16.8221011   10.39007361   1.989901995   
15.55457986   10.41104027   1.708012894   
14.45827859   10.45348254   1.458996616   
18.08636475   10.27545041   1.534500465   
16.75070199   10.34274361   1.263408329   
15.45347384   10.33555893   1.016627936   
14.36117333   10.37182901   0.800711681   
16.62541189   11.95516599   2.428027631   
16.91496259   10.37587328   1.997111773   
15.68098588   10.42612908   1.718372778   
14.51051783   10.42361362   1.461034142   
18.25591557   10.29782055   1.546197877   
16.81893513   10.31373677   1.266162301   
15.59489206   10.36103721   1.02383533   
14.43350892   10.35684034   0.802969386   
16.57959435   11.84522115   2.416017535   
17.06822528   10.39795336   2.011431193   
15.72785663   10.3878501   1.720008449   
14.60165   10.42131339   1.466983996   
18.38748658   10.29780387   1.554658279   
16.89822827   10.29115654   1.269748832   
15.66910793   10.34119481   1.026620058   
14.50019228   10.3374465   0.804911007   
17.11621879   10.35532546   2.013333773   
15.83708837   10.39035386   1.728459911   
14.67583079   10.40644456   1.471222125   
18.47390616   10.2718756   1.559293137   
17.03731419   10.30433886   1.277818347   
15.76422475   10.33467983   1.030769734   
14.56770838   10.3183186   0.80689775   
17.292044   10.38936417   2.030256724   
15.9406431   10.38847817   1.736275272   
14.76472317   10.40155197   1.476927363   
18.66860143   10.30527705   1.573050485   
17.16380709   10.30905615   1.284927393   
15.85777586   10.32658825   1.034810214   
14.72674404   10.36326222   0.813941708   
17.35972375   10.35767542   2.034462427   
16.0752659   10.40608682   1.747453049   
14.87740324   10.41278396   1.484996282   
18.78758763   10.29588209   1.580407486   
17.28706061   10.31104857   1.291780139   
15.94974791   10.31693532   1.038741617   
14.79940466   10.34665175   0.816199412   
17.53437073   10.38906721   2.051185106   
16.1557002   10.38795825   1.752723888   
14.9870165   10.4211462   1.492739045   
18.87602888   10.26917194   1.585189447   
17.41220362   10.31339933   1.298761035   
16.07541065   10.32840417   1.044856934   
14.93117708   10.37072487   0.821708192   
17.61332724   10.36297415   2.056692576   
16.3150675   10.41982108   1.766537027   
15.08616051   10.42156896   1.499422394   
19.03468277   10.27992946   1.595856891   
17.49021343   10.28725121   1.302219416   
16.179409   10.32523203   1.049552707   
8.901451639   6.142269657   0.488834639   
17.71118868   10.3475353   2.064403033   
16.39236849   10.39852401   1.771444277   
15.18380365   10.42035314   1.505942665   
19.12941693   10.2554103   1.601153837   
17.56736425   10.26021784   1.305613781   
16.2776369   10.31777675   1.053866177   
8.805722603   6.036419136   0.48255827   
9.92570897   5.317226448   0.418600661   
17.93132956   10.40249166   2.086332774   
16.4814886   10.38428297   1.777623848   
15.24287659   10.39224832   1.508632266   
19.18632008   10.21026095   1.603287325   
17.75501281   10.29689158   1.317205812   
16.37850386   10.31141226   1.058343558   
17.99764589   10.36729599   2.090338206   
16.61794839   10.39917647   1.788892463   
15.3893931   10.42312428   1.519961321   
17.91278206   10.31508   1.32655635   
16.48202512   10.30611284   1.062984733   
8.860798554   5.99458943   0.483551641   
18.10537197   10.35550229   2.099150157   
16.68191486   10.36812078   1.792345718   
15.44610611   10.39255198   1.522406422   
28.77531358   15.08734286   2.396801577   
17.98332757   10.28236581   1.329438353   
16.59584536   10.30659628   1.068281083   
18.23828581   10.35739355   2.110866047   
16.80093051   10.3707706   1.801705913   
15.55249338   10.39496043   1.529741728   
28.87542953   15.02707403   2.40128933   
18.09376459   10.27197974   1.335266377   
16.73616751   10.32272835   1.075270085   
31.59134276   16.42785296   1.323711288   
18.43031343   10.39179626   2.129391406   
16.93624946   10.38267657   1.812792854   
15.65654913   10.39515999   1.536832535   
28.89215555   14.92331163   2.398861514   
18.21908398   10.26934296   1.342183258   
16.81373717   10.29949826   1.078218489   
31.92842103   16.47889186   1.335710656   
18.52635494   10.3711698   2.136801456   
17.0156576   10.35966925   1.817881898   
15.77572846   10.4046949   1.54539045   
28.8943183   14.81230862   2.395256625   
18.34542693   10.26652091   1.349164153   
16.89814588   10.28004164   1.081603794   
32.11668731   16.45147644   1.341468823   
18.64157607   10.36068445   2.146414494   
17.17263309   10.38316191   1.831240611   
15.85009391   10.38410211   1.549547159   
28.8809603   14.69374553   2.39040123   
18.50507151   10.28143694   1.358578707   
17.04840128   10.29992196   1.089193492   
8.728521807   5.711913807   0.471495589   
32.31042511   16.42577637   1.34744991   
18.78913753   10.36737544   2.159732555   
17.29149142   10.38271807   1.840509967   
15.95705903   10.38435264   1.556882464   
28.86447741   14.57405583   2.385324822   
18.63090194   10.27667077   1.365495469   
17.21263494   10.32719493   1.097656755   
32.58103795   16.4377528   1.356625807   
18.84878098   10.32497864   2.162936902   
17.38656059   10.36736141   1.847234801   
16.03153173   10.36294218   1.561039173   
28.91440393   14.48811253   2.385766373   
18.7805087   10.28417144   1.37414148   
17.29227317   10.30295973   1.100714473   
8.804528276   5.684801172   0.473708143   
18.19841247   11.69719501   2.565083267   
19.00011954   10.33222222   2.176655507   
17.48512333   10.35354946   1.854323105   
16.17395492   10.38479019   1.571797573   
18.89175801   10.26987847   1.379969622   
17.38481583   10.28595887   1.10459116   
8.628519233   5.533724259   0.463322778   
28.75520008   14.2868752   1.193650854   
18.25430114   11.65413232   2.567909005   
17.68248793   10.39727817   1.87186213   
16.25363705   10.36566721   1.576443278   
19.02065916   10.26447727   1.387078548   
17.4455623   10.24977271   1.106447606   
18.2958401   11.60179686   2.568733218   
17.73064187   10.35251996   1.873588757   
16.41334128   10.39681984   1.588831865   
19.14002862   10.2531983   1.393482949   
17.66839265   10.30790565   1.118569164   
17.98767741   11.32915766   2.520575288   
17.82004343   10.33154043   1.87967749   
16.48143673   10.36923737   1.592336499   
35.43296838   17.21365961   2.905972109   
19.20575896   10.21270227   1.395980741   
17.73017342   10.27116968   1.120480208   
28.64904114   13.90684409   1.183880579   
18.02235038   11.27391881   2.520575288   
17.9457297   10.33097785   1.889582948   
16.63995506   10.39784805   1.604562126   
17.84555763   10.26501876   1.125776558   
