X     Y     Z
-0.474472087   -3.330533147   -0.244038025   
-0.353433339   -3.352070823   -0.276821903   
-0.248680638   -3.604321381   -0.330769817   
-0.576298905   -4.025674501   -0.445090484   
-0.586036282   -4.078975402   -0.604767989   
-0.43511653   -4.028973312   -0.944439977   
-0.2727815   -3.864247027   -0.94305673   
-0.369820093   -3.399347528   -0.935250927   
-0.231427294   -3.266245354   -0.930214295   
-0.103906259   -3.150676101   -0.931027856   
-0.206334671   -3.002181077   0.612679114   
-0.096966549   -3.043803863   0.590135596   
-0.318316988   -3.001042542   0.529635305   
-0.209003286   -3.029415404   0.503035294   
-0.510616357   -3.558540241   0.531053941   
-0.31801059   -2.988704468   0.414331609   
-0.216474597   -3.113962465   0.399981279   
-0.433829545   -3.023404648   0.337853263   
-0.321509028   -3.012587621   0.304914003   
-0.211961239   -3.032969976   0.277444171   
-0.495437999   -3.442077761   0.256534801   
-0.321937334   -3.012614383   0.194439481   
-0.212186739   -3.021032992   0.165606766   
-0.103944088   -3.044116063   0.13767383   
-0.496954099   -3.444935808   0.129391741   
-0.324056965   -3.01749496   0.083710738   
-0.213806652   -3.025960787   0.054803675   
-0.103475425   -3.021114769   0.026222039   
-0.485678042   -3.358059004   0.002309542   
-0.369732071   -3.436025763   -0.031003334   
-0.241891878   -3.404849455   -0.062323016   
-0.471275958   -3.24887379   -0.11808273   
-0.350748326   -3.245757458   -0.147847396   
-0.235562093   -3.294600907   -0.181602249   
-0.116495392   -3.310058665   -0.213778076   
-0.483250814   -3.319191918   -0.243314543   
-0.365006224   -3.362860611   -0.277804099   
-0.259665771   -3.602548321   -0.330678652   
-0.597711764   -4.08585393   -0.45194472   
-0.598978796   -4.080095132   -0.605203639   
-0.447045026   -4.023747822   -0.94353208   
-0.285420858   -3.874050544   -0.945658589   
-0.134484301   -3.712429232   -0.944283611   
-0.379389302   -3.390528234   -0.933140327   
-0.240879472   -3.257845407   -0.928028116   
-0.113641013   -3.152259404   -0.93159434   
-0.215333694   -2.998601837   0.612080566   
-0.106509965   -3.049378863   0.591277083   
-0.327201872   -2.997114459   0.529116687   
-0.217232595   -3.013999731   0.500583872   
-0.520383248   -3.549126548   0.529884856   
-0.329874225   -3.012333473   0.417745674   
-0.221071298   -3.045022946   0.391211438   
-0.499194026   -3.404611257   0.380620878   
-0.329881047   -3.003674993   0.304112918   
-0.221265267   -3.032305253   0.27744417   
-0.50672136   -3.445475027   0.256902651   
-0.332378307   -3.02252416   0.195143978   
-0.221308114   -3.018376052   0.16549757   
-0.112948428   -3.03479813   0.137267445   
-0.501255009   -3.400884001   0.127794308   
-0.33616744   -3.042319333   0.084427633   
-0.223677406   -3.033267833   0.054948179   
-0.11285548   -3.023780772   0.026248062   
-0.495393445   -3.352596172   0.002306819   
-0.380932119   -3.440838585   -0.03105716   
-0.251449736   -3.392126179   -0.062103955   
-0.478457711   -3.228629868   -0.117399757   
-0.362470507   -3.260551832   -0.14857125   
-0.246337055   -3.302824297   -0.182096327   
-0.126726287   -3.311680078   -0.213906896   
-0.491230833   -3.302895837   -0.242229263   
-0.376427448   -3.371629769   -0.278622619   
-0.270791642   -3.602727642   -0.330769817   
-0.616267263   -4.124310047   -0.456405412   
-0.612227107   -4.083130745   -0.605929625   
-0.459387599   -4.02235747   -0.943532081   
-0.297230563   -3.872188177   -0.94542208   
-0.145911287   -3.712967722   -0.944530016   
-0.388577282   -3.378807547   -0.930238296   
-0.252646214   -3.280109351   -0.934586594   
-0.124248777   -3.175853672   -0.938675489   
-0.112131625   -3.004694391   0.699147828   
-0.223873592   -2.989132654   0.610285035   
-0.116312181   -3.060810092   0.593560001   
-0.334197409   -2.976520631   0.525659558   
-0.227069915   -3.021189435   0.501891301   
-0.534785793   -3.570993802   0.533392112   
-0.338560099   -3.006385183   0.417062844   
-0.229214532   -3.028505441   0.389177847   
-0.512875434   -3.424689018   0.383039604   
-0.338313062   -2.995727926   0.303411967   
-0.230189599   -3.026647301   0.276989804   
-0.517141432   -3.442917991   0.256829069   
-0.340752702   -3.013557115   0.194631616   
-0.230110901   -3.011709363   0.165169953   
-0.122017224   -3.028448488   0.136996513   
-0.51109143   -3.395377529   0.127645713   
-0.347417737   -3.058158636   0.084896364   
-0.233135472   -3.034560987   0.054984307   
-0.121970325   -3.019423898   0.026213365   
-0.504781469   -3.345127729   0.002302735   
-0.390016596   -3.426737635   -0.030940536   
-0.259546313   -3.361432795   -0.0615563   
-0.138556658   -3.378844545   -0.094340858   
-0.487164538   -3.219242064   -0.117112187   
-0.372585454   -3.260416884   -0.14861649   
-0.254303877   -3.27417909   -0.180559183   
-0.136926988   -3.312272932   -0.213971314   
-0.501062143   -3.299401128   -0.242084572   
-0.393018906   -3.424917127   -0.283124468   
-0.281998769   -3.603865616   -0.330952149   
-0.633415225   -4.151880882   -0.459669333   
-0.625499646   -4.086123393   -0.606655611   
-0.474335854   -4.043176221   -0.948752494   
-0.308876874   -3.868352119   -0.944712426   
-0.157630062   -3.720249103   -0.946500845   
-0.397923193   -3.368978395   -0.927863887   
-0.264167757   -3.297537374   -0.939778756   
-0.133708543   -3.168750277   -0.936692743   
-0.121585228   -3.010175394   0.700506693   
-0.232890713   -2.986477901   0.609886041   
-0.125218606   -3.048667878   0.591277082   
-0.345585666   -2.995050528   0.529116688   
-0.232720708   -2.974251643   0.49421011   
-0.545290401   -3.566402742   0.53295372   
-0.348920752   -3.015173027   0.418428476   
-0.238816339   -3.031743265   0.389686245   
-0.527135452   -3.447662567   0.385788183   
-0.345667225   -2.978862302   0.301809793   
-0.240259802   -3.035854243   0.277898565   
-0.528306356   -3.445258272   0.257123366   
-0.349535877   -3.00853253   0.194375436   
-0.23942872   -3.011984445   0.165224551   
-0.132433051   -3.054009005   0.138170516   
-0.51877389   -3.376014611   0.126977023   
-0.402803258   -3.45125192   0.095842727   
-0.241647796   -3.023865   0.054803675   
-0.131146372   -3.017037296   0.026196016   
-0.51565076   -3.347516667   0.002305458   
-0.392979478   -3.360967297   -0.030357432   
-0.272258693   -3.390519509   -0.062103955   
-0.148834106   -3.376406241   -0.09428509   
-0.497954102   -3.223658183   -0.117327867   
-0.383052379   -3.263227091   -0.148797449   
-0.265874833   -3.292293225   -0.181602249   
-0.1468226   -3.305855541   -0.213584852   
-0.511335033   -3.298833922   -0.242156932   
-0.410057498   -3.479123795   -0.287708155   
-0.292569548   -3.597028221   -0.330405127   
-0.638503293   -4.100806446   -0.454229455   
-0.640170721   -4.097870723   -0.608688485   
-0.4867379   -4.041701816   -0.948752493   
-0.319297854   -3.849956967   -0.940454865   
-0.16688694   -3.672307193   -0.934429356   
-0.404078297   -3.333269544   -0.918366303   
-0.271332219   -3.261242224   -0.929667722   
-0.142822301   -3.154912195   -0.932727305   
-0.130946641   -3.01270758   0.701186128   
-0.242289546   -2.988679443   0.610484533   
-0.134571192   -3.048269402   0.591277083   
-0.35546814   -2.999844605   0.530153865   
-0.243843868   -2.998106485   0.498295888   
-0.557602018   -3.573509879   0.534268954   
-0.354428853   -2.982609512   0.414058471   
-0.247873707   -3.028030676   0.389304955   
-0.531580706   -3.406746809   0.381390463   
-0.35668813   -2.993595686   0.303411967   
-0.249246101   -3.03113298   0.277535067   
-0.537948654   -3.437709388   0.256681935   
-0.359473546   -3.013391556   0.194759707   
-0.248339521   -3.007255334   0.165006145   
-0.140643478   -3.028640671   0.137041678   
-0.52835491   -3.369470947   0.12679128   
-0.412676115   -3.444044672   0.095677294   
-0.250427527   -3.017130792   0.054695295   
-0.14109925   -3.031603903   0.026326129   
-0.527315868   -3.35480984   0.002311584   
-0.40221636   -3.350810449   -0.030276693   
-0.283074805   -3.394650212   -0.062195224   
-0.159568753   -3.383921892   -0.094508183   
-0.507375004   -3.219153834   -0.117220027   
-0.394137597   -3.270962757   -0.149204623   
-0.274973057   -3.279522115   -0.180943469   
-0.156632773   -3.298411973   -0.213133973   
-0.524257629   -3.314982203   -0.243459234   
-0.434254952   -3.589654912   -0.296957366   
-0.30209575   -3.578252225   -0.328764033   
-0.646247024   -4.068393941   -0.450856756   
-0.65741115   -4.125199609   -0.613044513   
-0.331607493   -3.854767746   -0.941874054   
-0.178810203   -3.685330283   -0.937878376   
-0.412874498   -3.320527715   -0.915200403   
-0.282411359   -3.272853396   -0.933220277   
-0.152917569   -3.163080547   -0.935276536   
-0.139736073   -3.002562039   0.69892133   
-0.252197126   -2.996710031   0.61228012   
-0.143922512   -3.047842031   0.591277081   
-0.36514547   -3.002650936   0.53084528   
-0.253289747   -3.000293326   0.498786137   
-0.149233904   -3.110769306   0.485744799   
-0.571362061   -3.589367643   0.536899367   
-0.367175093   -3.011008633   0.418155367   
-0.254895541   -3.000570847   0.385873276   
-0.549061233   -3.449271072   0.386337887   
-0.366232914   -2.995450141   0.303712374   
-0.258798282   -3.033330834   0.27780767   
-0.551322598   -3.453769627   0.258006172   
-0.371869269   -3.038028802   0.196424867   
-0.257820169   -3.00946394   0.165169953   
-0.148254899   -2.994271059   0.135506441   
-0.539321125   -3.371781158   0.126939875   
-0.42360626   -3.445738991   0.095760011   
-0.260283092   -3.02332147   0.054821739   
-0.150250749   -3.028160589   0.026300106   
-0.536655959   -3.347251885   0.0023075   
-0.412861271   -3.352538023   -0.030303605   
-0.293315848   -3.39177353   -0.062158717   
-0.172005775   -3.424348823   -0.095651535   
-0.516455779   -3.21264864   -0.117040297   
-0.404906216   -3.27568669   -0.149476063   
-0.282265883   -3.246831346   -0.179186741   
-0.166549853   -3.293929303   -0.212876332   
-0.535219508   -3.318281353   -0.243820975   
-0.448947721   -3.617977601   -0.299412928   
-0.313072251   -3.577308479   -0.328764032   
-0.674939444   -4.166481709   -0.461954097   
-0.674349067   -4.149531047   -0.616965007   
-0.343432214   -3.8537322   -0.941874054   
-0.191364256   -3.708961742   -0.944037266   
-0.427694037   -3.355604944   -0.925225665   
-0.292279718   -3.270055187   -0.932673702   
-0.162325543   -3.156849769   -0.933577029   
-0.148850608   -3.000173629   0.698468393   
-0.261815562   -3.000803083   0.613277605   
-0.152286175   -3.027776315   0.58747222   
-0.374843354   -3.005426223   0.531536696   
-0.263783444   -3.014244175   0.501237558   
-0.1574672   -3.084640849   0.481737997   
-0.585224607   -3.605174572   0.53952978   
-0.373952421   -2.990208368   0.415424103   
-0.264534914   -3.004715272   0.386508753   
-0.562985314   -3.468173254   0.388646673   
-0.376040008   -2.999248624   0.304213053   
-0.266699981   -3.016650675   0.276353673   
-0.563037611   -3.458952454   0.258521156   
-0.382058064   -3.043804961   0.196873183   
-0.267316731   -3.011642479   0.165333761   
-0.157650343   -2.997792575   0.135687058   
-0.549341395   -3.368138021   0.126865577   
-0.433300555   -3.437480736   0.095567004   
-0.270534283   -3.033463435   0.055020431   
-0.160592682   -3.047656936   0.026473589   
-0.548535968   -3.355458606   0.002314306   
-0.424272156   -3.360184309   -0.030384343   
-0.302828287   -3.380899073   -0.06197617   
-0.181925407   -3.412824801   -0.095344787   
-0.525663023   -3.207104235   -0.116896515   
-0.415581936   -3.279384438   -0.149702277   
-0.293300065   -3.257883684   -0.179845521   
-0.176227096   -3.285430925   -0.21236105   
-0.547015721   -3.32646542   -0.244544486   
-0.462309155   -3.634379326   -0.300886236   
-0.325753181   -3.595174737   -0.330496292   
-0.693225777   -4.197738319   -0.465653193   
-0.684165824   -4.129872774   -0.614351343   
-0.354718381   -3.846855335   -0.940454867   
-0.202477749   -3.703518468   -0.942805476   
-0.303639357   -3.283510848   -0.936772773   
-0.171853301   -3.153463963   -0.932727304   
-0.159028052   -3.01818354   0.702771494   
-0.272431304   -3.0156006   0.616469674   
-0.16167919   -3.029255485   0.587852677   
-0.386310266   -3.021847824   0.534648174   
-0.271071279   -2.991805152   0.497642146   
-0.166075585   -3.068357373   0.479272272   
-0.592890701   -3.582866425   0.536460975   
-0.386273126   -3.01361182   0.418838167   
-0.274472163   -3.011791734   0.387525547   
-0.570702033   -3.448778929   0.38666771   
-0.386507847   -3.007949433   0.305214411   
-0.276044416   -3.016809991   0.276444541   
-0.17449851   -3.164612923   0.259181553   
-0.57332037   -3.455241036   0.258374022   
-0.390248609   -3.033710278   0.196296776   
-0.277103039   -3.016774044   0.165661364   
-0.168012678   -3.018241073   0.136635294   
-0.562294266   -3.382209345   0.12745997   
-0.443332328   -3.432169542   0.095456712   
-0.279839526   -3.032619047   0.055020431   
-0.169496549   -3.039162683   0.026404196   
-0.558827799   -3.353759952   0.002314306   
-0.43599045   -3.369775584   -0.030483022   
-0.311907765   -3.366016298   -0.061720593   
-0.192563766   -3.415244669   -0.095428442   
-0.534511794   -3.199562322   -0.116680836   
-0.425640984   -3.278093962   -0.149702277   
-0.304312112   -3.267904596   -0.180449391   
-0.186305822   -3.284874723   -0.21236105   
-0.563977738   -3.365101459   -0.247510859   
-0.474616272   -3.641838651   -0.301622919   
-0.337246019   -3.599115889   -0.330952148   
-0.706265935   -4.196571864   -0.465762   
-0.697821051   -4.13360808   -0.615222584   
-0.368638901   -3.86799545   -0.945895102   
-0.215291822   -3.728036717   -0.94921077   
-0.313437062   -3.279691098   -0.93595297   
-0.181692554   -3.155794401   -0.93357703   
-0.167853093   -3.009901309   0.700959688   
-0.281134813   -3.008896525   0.61527269   
-0.170418744   -3.018943381   0.585950273   
-0.280064675   -2.98899485   0.497315274   
-0.175544826   -3.068819904   0.479426409   
-0.608321538   -3.607368852   0.540406566   
-0.394743163   -3.006519345   0.418018783   
-0.283338714   -3.006985616   0.38701715   
-0.584585561   -3.466613858   0.388866555   
-0.395734299   -3.006749397   0.305214411   
-0.28604886   -3.023880315   0.277171539   
-0.180093806   -3.09341848   0.253394805   
-0.583751954   -3.452482535   0.258300469   
-0.398771898   -3.026562415   0.19591252   
-0.286451469   -3.0169038   0.165715976   
-0.178091879   -3.03167289   0.137267445   
-0.583517271   -3.444511041   0.129874688   
-0.455170961   -3.440703284   0.095732436   
-0.29009142   -3.041699523   0.055201063   
-0.178996004   -3.041623028   0.026430219   
-0.570955626   -3.362874496   0.002321794   
-0.446326722   -3.368421985   -0.030483022   
-0.324234544   -3.38594428   -0.062103954   
-0.202862683   -3.411644446   -0.095344787   
-0.545834628   -3.20677395   -0.117004348   
-0.437144404   -3.287665566   -0.150199917   
-0.314910247   -3.272919169   -0.180778782   
-0.195906286   -3.2763186   -0.211845768   
-0.566576821   -3.318130643   -0.244182745   
-0.487368965   -3.652219998   -0.302605115   
-0.347806651   -3.59310828   -0.330496292   
-0.718297634   -4.189486384   -0.465218018   
-0.712008719   -4.140223429   -0.616529415   
-0.382311864   -3.88521852   -0.950389234   
-0.227140171   -3.73413039   -0.950935252   
-0.322741936   -3.271055928   -0.933766793   
-0.191721918   -3.160965757   -0.935276535   
-0.178459763   -3.032708087   0.706395215   
-0.2908354   -3.012896674   0.616270175   
-0.179971621   -3.023306369   0.586901447   
-0.288282955   -2.978301909   0.495680974   
-0.184186104   -3.055445536   0.477423037   
-0.618213489   -3.59866071   0.539383631   
-0.407132506   -3.028857455   0.421296293   
-0.292274447   -3.003140528   0.386635859   
-0.594545128   -3.460885595   0.388426791   
-0.406949912   -3.020312202   0.306716448   
-0.295808762   -3.027944151   0.277625934   
-0.187936995   -3.065991702   0.251194202   
-0.591463536   -3.433967385   0.257049785   
-0.41445836   -3.072796438   0.19898666   
-0.296582733   -3.024954509   0.166207387   
-0.187207162   -3.028121175   0.137131979   
-0.585755422   -3.394451504   0.128054362   
-0.465590591   -3.43830002   0.095704869   
-0.29844206   -3.030844843   0.055020431   
-0.188697586   -3.047047848   0.026482264   
-0.580247641   -3.355194797   0.00231771   
-0.460152943   -3.392799919   -0.030716266   
-0.332653748   -3.365033995   -0.061738847   
-0.21351569   -3.413998944   -0.095428442   
-0.557718875   -3.216900205   -0.117435706   
-0.447632884   -3.289278487   -0.150335651   
-0.324061821   -3.262995121   -0.180284703   
-0.207647712   -3.302593024   -0.213584852   
-0.578633846   -3.327185767   -0.244978587   
-0.498166961   -3.64774521   -0.302359573   
-0.357244707   -3.576169863   -0.329037557   
-0.729950487   -4.180408153   -0.46445642   
-0.556189629   -4.055184031   -0.486846693   
-0.727608958   -4.154587328   -0.618997824   
-0.394818439   -3.889827275   -0.951808421   
-0.238348001   -3.729547137   -0.949949809   
-0.334236698   -3.284405257   -0.937865864   
-0.201967714   -3.168976598   -0.937825707   
-0.186619343   -3.013675446   0.702092058   
-0.301728927   -3.028566406   0.619661797   
-0.188816747   -3.015881419   0.58556976   
-0.297713101   -2.980348583   0.496171282   
-0.192622038   -3.040074852   0.47511142   
-0.630273976   -3.602593944   0.540260474   
-0.416962939   -3.031519789   0.421842569   
-0.302081229   -3.008151222   0.38739847   
-0.608928494   -3.480584862   0.390845519   
-0.413768261   -3.001307705   0.304914003   
-0.303499088   -3.011168979   0.276171909   
-0.196766174   -3.056449153   0.250460677   
-0.608370865   -3.468481491   0.259771839   
-0.463584317   -3.359186363   0.217623646   
-0.304957436   -3.015089464   0.165715976   
-0.196690531   -3.030523227   0.137267446   
-0.607408595   -3.456613407   0.13046908   
-0.474353698   -3.423983185   0.095346421   
-0.308850509   -3.040857008   0.055219127   
-0.196682658   -3.025499637   0.026300106   
-0.588977589   -3.344535303   0.002311584   
-0.468223423   -3.374534274   -0.03056376   
-0.344395722   -3.377923094   -0.061994424   
-0.223595954   -3.407342867   -0.095261124   
-0.567064328   -3.21222158   -0.117327866   
-0.458135382   -3.290857996   -0.150471371   
-0.336512474   -3.285824752   -0.181602249   
-0.216596795   -3.284016597   -0.212425467   
-0.59075173   -3.336197932   -0.245774457   
-0.508390558   -3.639290226   -0.301786623   
-0.367602394   -3.569113626   -0.328490536   
-0.743468314   -4.182063956   -0.464891623   
-0.567524584   -4.045591821   -0.48590184   
-0.74781938   -4.19421925   -0.62524153   
-0.408569845   -3.905991637   -0.956066036   
-0.248882059   -3.715260184   -0.946500845   
-0.342104417   -3.262317161   -0.931853901   
-0.212264455   -3.176954221   -0.940374937   
-0.196053831   -3.016004575   0.702771492   
-0.310618476   -3.023727556   0.618863753   
-0.198647596   -3.024104549   0.587281962   
-0.307562765   -2.986290732   0.497315275   
-0.201685935   -3.035525948   0.474494988   
-0.642017486   -3.604538951   0.540845016   
-0.426399517   -3.031207091   0.421979123   
-0.310389451   -2.998330575   0.386254567   
-0.20715503   -3.09335425   0.367601099   
-0.622218295   -3.493378289   0.392494659   
-0.426724709   -3.026625422   0.307617671   
-0.312838697   -3.011214207   0.276262777   
-0.205203156   -3.041909324   0.249319635   
-0.613925243   -3.438127818   0.257638351   
-0.483092384   -3.422966494   0.221850584   
-0.314413211   -3.016125843   0.165825172   
-0.206190398   -3.032895453   0.137402897   
-0.616426779   -3.445880457   0.130134729   
-0.486118006   -3.431419629   0.095594578   
-0.320572162   -3.062766472   0.055634579   
-0.205624178   -3.01989374   0.026256736   
-0.597647638   -3.333853835   0.002305458   
-0.47955745   -3.380012227   -0.030626558   
-0.356324372   -3.39176608   -0.062268247   
-0.233431842   -3.397665527   -0.095010144   
-0.572674602   -3.186860579   -0.116465157   
-0.464146835   -3.260755696   -0.149159383   
-0.34407709   -3.260945366   -0.180284704   
-0.227427019   -3.294287839   -0.213133973   
-0.604168763   -3.352037885   -0.247076759   
-0.512225747   -3.586408526   -0.297530345   
-0.378130306   -3.56400786   -0.328125845   
-0.759481079   -4.197370604   -0.466849964   
-0.578382955   -4.033018861   -0.484602636   
-0.769693074   -4.241553945   -0.63264687   
-0.587216475   -4.077899002   -0.644063741   
-0.420863495   -3.907618121   -0.956775632   
-0.260550127   -3.71834625   -0.947486287   
-0.353040785   -3.269859647   -0.934313366   
-0.221542121   -3.169591197   -0.938392248   
-0.205901364   -3.024134847   0.704809851   
-0.320409299   -3.027632653   0.619861295   
-0.207520347   -3.017604331   0.586140475   
-0.317555799   -2.993181267   0.498622701   
-0.21086079   -3.032921548   0.474186773   
-0.649190937   -3.581137622   0.537630003   
-0.503378218   -3.500546523   0.487529301   
-0.322215803   -3.022021767   0.389432061   
-0.21525647   -3.072891739   0.365246179   
-0.634705827   -3.501233063   0.393594097   
-0.452897908   -3.142493046   0.31953386   
-0.320910122   -2.99934801   0.275263147   
-0.214394367   -3.039277045   0.249156617   
-0.625540346   -3.442115437   0.258079753   
-0.501286186   -3.474805396   0.225308995   
-0.324091369   -3.019118417   0.166043579   
-0.215848298   -3.037231032   0.137628665   
-0.629143504   -3.455770911   0.130580527   
-0.503519112   -3.477398549   0.096918069   
-0.370677297   -3.439519288   0.062498586   
-0.215243066   -3.024235837   0.026300106   
-0.609488188   -3.340858454   0.002311584   
-0.484902245   -3.343888727   -0.030312575   
-0.358664986   -3.316104082   -0.060899114   
-0.244713524   -3.408897951   -0.095344787   
-0.584066954   -3.193935907   -0.116788675   
-0.475442826   -3.268213585   -0.149566543   
-0.352678258   -3.246969787   -0.179571027   
-0.239040141   -3.314476555   -0.214486596   
-0.619307847   -3.376655888   -0.249030212   
-0.520491426   -3.566082368   -0.295975141   
-0.389711343   -3.568770683   -0.328672867   
-0.769294972   -4.178401194   -0.465000403   
-0.589745483   -4.024347816   -0.48377586   
-0.750007383   -4.062094341   -0.606220018   
-0.600875083   -4.083897782   -0.645299344   
-0.4314588   -3.893754482   -0.95370069   
-0.272805158   -3.729128641   -0.950442559   
-0.363920435   -3.276409516   -0.936499487   
-0.231125637   -3.16698359   -0.937825708   
-0.213449682   -2.999199979   0.699147827   
-0.330333125   -3.032480164   0.621058278   
-0.218254808   -3.03751679   0.590135594   
-0.327165634   -2.996115914   0.499276444   
-0.220379333   -3.035216849   0.474649097   
-0.658739105   -3.571346125   0.536460975   
-0.526788247   -3.585235202   0.499546791   
-0.330403829   -3.011159393   0.388161053   
-0.223451617   -3.055380102   0.363244506   
-0.646526214   -3.505133854   0.394253741   
-0.503267845   -3.417693619   0.34767208   
-0.330546409   -3.002308794   0.275626646   
-0.221961359   -3.014749332   0.247200541   
-0.637366942   -3.447044763   0.258594737   
-0.503358622   -3.415001424   0.221530358   
-0.33368125   -3.021087194   0.166207387   
-0.224426649   -3.026591994   0.13717713   
-0.640834742   -3.459719931   0.130803418   
-0.508919027   -3.440238493   0.095925451   
-0.379905687   -3.426440772   0.062281827   
-0.225705088   -3.039516794   0.026438894   
-0.619917433   -3.33995588   0.002312264   
-0.492081516   -3.321613022   -0.030124187   
-0.368173571   -3.309026022   -0.060789583   
-0.255319985   -3.410124878   -0.095400554   
-0.597518722   -3.21177889   -0.117507597   
-0.482970964   -3.249941546   -0.14879745   
-0.364744578   -3.264726739   -0.180614094   
-0.250030914   -3.324673838   -0.215195116   
-0.6349695   -3.403173326   -0.251128384   
-0.527020551   -3.534896205   -0.293519608   
-0.401102899   -3.57151669   -0.329037558   
-0.754661616   -4.029459753   -0.448680798   
-0.607675038   -4.059838047   -0.48826403   
-0.731784941   -3.896410982   -0.581826042   
-0.613988751   -4.08594353   -0.645917148   
-0.443182688   -3.890481331   -0.953227663   
-0.284097345   -3.726341372   -0.949949808   
-0.372879357   -3.265720448   -0.933766793   
-0.240477018   -3.161478165   -0.936409501   
-0.224381107   -3.021843149   0.704583353   
-0.339635095   -3.031452272   0.621058276   
-0.226398937   -3.021169074   0.587091704   
-0.33404394   -2.974509853   0.49584441   
-0.231107117   -3.05324583   0.477577115   
-0.669510318   -3.568336147   0.536314825   
-0.530434352   -3.534619145   0.492718662   
-0.34053008   -3.018016489   0.389177847   
-0.232899816   -3.055670434   0.363362255   
-0.65709349   -3.502156934   0.394143801   
-0.517154159   -3.438763551   0.349975204   
-0.337291369   -2.979510564   0.273627386   
-0.230599582   -3.006104321   0.246548497   
-0.653653711   -3.475456366   0.260875361   
-0.516804308   -3.433177695   0.222811262   
-0.345539485   -3.042868287   0.167463227   
-0.233787967   -3.026885139   0.13722228   
-0.651446022   -3.457737532   0.130803418   
-0.512602593   -3.393194283   0.094657101   
-0.392114496   -3.440160239   0.062552774   
-0.23518335   -3.040803988   0.026456242   
-0.631645366   -3.345899452   0.00231771   
-0.508252768   -3.359635965   -0.030483022   
-0.373324941   -3.264173133   -0.059986358   
-0.265703213   -3.408328873   -0.095372667   
-0.609599125   -3.221713963   -0.117938948   
-0.494737911   -3.26029639   -0.149340343   
-0.375784093   -3.27251991   -0.181108171   
-0.259217114   -3.310957711   -0.214357775   
-0.706396506   -3.722614407   -0.274859319   
-0.535613156   -3.518483373   -0.292291842   
-0.413770926   -3.585108326   -0.330405127   
-0.733542166   -3.851353947   -0.429097246   
-0.631978086   -4.135501288   -0.49759466   
-0.73297015   -3.837781083   -0.573404265   
-0.628468942   -4.096735852   -0.647925047   
-0.455116452   -3.889103539   -0.953227664   
-0.293458952   -3.699366235   -0.943298226   
-0.383232853   -3.267427159   -0.934586595   
-0.248964398   -3.145428597   -0.93187758   
-0.234026457   -3.025996184   0.705715782   
-0.235666688   -3.020460375   0.587091705   
-0.341018991   -2.954850195   0.492739248   
-0.239697285   -3.04267241   0.476036037   
-0.682679621   -3.577926058   0.538068453   
-0.54277609   -3.542767021   0.494084264   
-0.348302582   -3.004148771   0.387525547   
-0.241566809   -3.04603203   0.362302544   
-0.661128537   -3.46497691   0.390185874   
-0.528154627   -3.440110979   0.350275611   
-0.34884694   -2.999234968   0.275535779   
-0.242516612   -3.039162031   0.249319635   
-0.668060035   -3.493025361   0.26234676   
-0.540521872   -3.517390153   0.228383134   
-0.353600495   -3.030884273   0.166862606   
-0.242353359   -3.017191859   0.136815896   
-0.662239181   -3.456704232   0.130840567   
-0.525600252   -3.408400652   0.09512584   
-0.403945959   -3.449864708   0.062751474   
-0.244751813   -3.043058423   0.026482264   
-0.642661582   -3.347874266   0.002320432   
-0.510011594   -3.302719163   -0.029980656   
-0.382054273   -3.252089419   -0.05978555   
-0.275674087   -3.401519617   -0.095205349   
-0.633829722   -3.294411491   -0.120670845   
-0.500609579   -3.232108689   -0.148118835   
-0.384301899   -3.258460557   -0.180394495   
-0.270749789   -3.327055802   -0.215452757   
-0.740865674   -3.839906526   -0.283686081   
-0.548547338   -3.530611112   -0.293437742   
-0.429104694   -3.620411754   -0.33377848   
-0.740251966   -3.822735107   -0.42615972   
-0.638082914   -4.091353904   -0.492515986   
-0.741346263   -3.818031476   -0.570790659   
-0.641951444   -4.100644978   -0.648851721   
-0.30464785   -3.696516844   -0.942805477   
-0.394175282   -3.273876409   -0.936772774   
-0.258927696   -3.148473177   -0.933010545   
-0.244535374   -3.01483043   0.586140474   
-0.354262821   -2.989059022   0.498622702   
-0.247418587   -3.022227705   0.472953912   
-0.552571432   -3.534234132   0.493128325   
-0.35751753   -3.003066211   0.387525548   
-0.250421518   -3.039338539   0.36159608   
-0.357810646   -2.99617296   0.275354043   
-0.251345506   -3.032444103   0.248830609   
-0.691716848   -3.557528436   0.267349438   
-0.362778691   -3.028793884   0.166808008   
-0.251027553   -3.009465508   0.136499827   
-0.413334867   -3.438682252   0.062570842   
-0.254752419   -3.050265028   0.026551658   
-0.652929669   -3.345886758   0.002320432   
-0.520920004   -3.306077644   -0.030025508   
-0.392508576   -3.254872506   -0.059858573   
-0.286443717   -3.404642139   -0.095316899   
-0.650263879   -3.324816856   -0.121857067   
-0.509743562   -3.225623956   -0.147892636   
-0.396696764   -3.277091461   -0.181492458   
-0.279947865   -3.314276847   -0.214679834   
-0.751683091   -3.832721689   -0.28332434   
-0.560156665   -3.533833401   -0.293847016   
-0.748328889   -3.80191441   -0.424092572   
-0.654064628   -4.110951973   -0.495114392   
-0.749608084   -3.798267025   -0.568176997   
-0.658268304   -4.122071618   -0.652558593   
-0.317143124   -3.70908401   -0.946254499   
-0.392661725   -3.179092811   -0.909992228   
-0.26752586   -3.135241555   -0.92932835   
-0.254030692   -3.017000778   0.586711246   
-0.363193227   -2.985999402   0.498295887   
-0.257107671   -3.02637679   0.473724449   
-0.366608844   -3.00097057   0.387398469   
-0.259152841   -3.031629829   0.360771866   
-0.365305383   -2.981222414   0.274081782   
-0.260391624   -3.028679676   0.248586082   
-0.69818091   -3.532886994   0.265657351   
-0.372799923   -3.033612834   0.16713561   
-0.260861948   -3.015647995   0.136815896   
-0.424127395   -3.439382548   0.062606963   
-0.263332764   -3.04050312   0.026473589   
-0.664164336   -3.348772242   0.002323836   
-0.530901785   -3.303476815   -0.030016538   
-0.404333749   -3.268536988   -0.060132397   
-0.295411051   -3.386818374   -0.094842819   
-0.658123286   -3.311044165   -0.121425708   
-0.519955123   -3.226017561   -0.147983116   
-0.40711799   -3.27883157   -0.181657145   
-0.288112605   -3.290537525   -0.21319839   
-0.75914921   -3.808878496   -0.281732628   
-0.572109058   -3.538985409   -0.294419967   
-0.754725293   -3.773282351   -0.421155018   
-0.675261612   -4.161855785   -0.501492268   
-0.758339263   -3.781397871   -0.565998982   
-0.673611028   -4.136610291   -0.655184238   
-0.328606461   -3.709058793   -0.946500843   
-0.278832755   -3.153512575   -0.934993295   
-0.263285531   -3.016207294   0.586711247   
-0.372596675   -2.986829056   0.498622702   
-0.266131268   -3.022621067   0.473262127   
-0.712471538   -3.555971406   0.535730282   
-0.573292514   -3.524910373   0.492308998   
-0.376553747   -3.005736814   0.388161052   
-0.268189669   -3.027853084   0.360418621   
-0.699239817   -3.489931397   0.393704037   
-0.562034703   -3.448852477   0.351677512   
-0.376933009   -2.999849513   0.275899277   
-0.269063309   -3.020917417   0.248015575   
-0.701358762   -3.492595231   0.262788162   
-0.569659237   -3.492567677   0.227102245   
-0.383228635   -3.041370978   0.167627035   
-0.27002344   -3.013838427   0.136770745   
-0.698557989   -3.472995596   0.131695014   
-0.548392085   -3.351134535   0.09366449   
-0.435178928   -3.44203284   0.062679218   
-0.272927671   -3.042668793   0.026499612   
-0.671076751   -3.330054096   0.002312264   
-0.544753203   -3.324528743   -0.030222867   
-0.418888093   -3.302989156   -0.060789583   
-0.303012906   -3.355033745   -0.093978335   
-0.675202493   -3.343294559   -0.122683828   
-0.532279712   -3.239193464   -0.14866173   
-0.417175384   -3.277567096   -0.181657145   
-0.297575835   -3.282681145   -0.212747511   
-0.776175832   -3.832924963   -0.283686081   
-0.589608661   -3.57753195   -0.297775886   
-0.764516394   -3.762181633   -0.420175861   
-0.6902954   -4.17348009   -0.503145819   
-0.760455854   -3.732518339   -0.559029233   
-0.687916676   -4.144271012   -0.656728774   
-0.340603588   -3.714789171   -0.948225326   
-0.288506301   -3.152642078   -0.934993292   
-0.272272777   -3.012452124   0.586140475   
-0.383635281   -3.000350875   0.501074181   
-0.27504457   -3.017854408   0.472645695   
-0.721404503   -3.544075033   0.534268954   
-0.582321821   -3.512384778   0.490806783   
-0.387036637   -3.014405691   0.389432061   
-0.276843184   -3.020093762   0.359594407   
-0.708159171   -3.479004145   0.392714541   
-0.569678164   -3.42944468   0.349875068   
-0.384862789   -2.988801808   0.274990515   
-0.276866647   -3.004198221   0.246711515   
-0.710077144   -3.48065544   0.262052463   
-0.578080209   -3.477021355   0.226205627   
-0.392941253   -3.043151698   0.167790829   
-0.280743659   -3.028911253   0.137493213   
-0.706809021   -3.459087032   0.131249216   
-0.560315242   -3.359296204   0.093940214   
-0.445608428   -3.439690141   0.062661158   
-0.28484818   -3.069696254   0.02674249   
-0.683696764   -3.339735611   0.002320432   
-0.557915164   -3.3405953   -0.030384343   
-0.424768022   -3.268969147   -0.060187166   
-0.309028032   -3.308305492   -0.092695539   
-0.687665602   -3.351976036   -0.123079231   
-0.5356146   -3.198135062   -0.146852088   
-0.427874393   -3.281222357   -0.181931639   
-0.306527846   -3.269830107   -0.211974588   
-0.786524807   -3.823687193   -0.28317962   
-0.68494036   -4.077956511   -0.339602016   
-0.775050273   -3.75495087   -0.41963188   
-0.703096211   -4.171342828   -0.50314582   
-0.767893629   -3.71079033   -0.556125177   
-0.703593875   -4.159675991   -0.659508913   
-0.351632981   -3.709867415   -0.947239884   
-0.298357772   -3.153651668   -0.935559775   
-0.281970426   -3.016490093   0.587091705   
-0.392710297   -2.998181365   0.500910743   
-0.283931146   -3.01306172   0.472029265   
-0.732474511   -3.542813974   0.534415047   
-0.5902895   -3.493976155   0.48848524   
-0.398093578   -3.026971954   0.391211439   
-0.286482149   -3.023184596   0.360065374   
-0.718628047   -3.475841892   0.392604601   
-0.580861058   -3.431604899   0.350275612   
-0.395462859   -2.998467635   0.275990174   
-0.287121686   -3.014248633   0.247608058   
-0.718526459   -3.467718769   0.261243211   
-0.586911256   -3.464408494   0.225501131   
-0.440893056   -3.333949347   0.183898314   
-0.290034927   -3.028035757   0.137493213   
-0.717824147   -3.458859355   0.131323513   
-0.569111414   -3.348691908   0.093692057   
-0.457605591   -3.44920945   0.06285985   
-0.301995761   -3.149435177   0.027445098   
-0.692311215   -3.329789982   0.002314987   
-0.569167805   -3.344782613   -0.03043817   
-0.434399442   -3.264677281   -0.060132397   
-0.316583714   -3.280477131   -0.091942598   
-0.695296132   -3.337131988   -0.12261193   
-0.54424762   -3.189583563   -0.146535408   
-0.440053418   -3.295729685   -0.182810004   
-0.317423813   -3.277813725   -0.212554288   
-0.795192741   -3.806611599   -0.282094368   
-0.705348835   -4.122007099   -0.343449048   
-0.53475478   -3.987476312   -0.368332426   
-0.786158783   -3.750609446   -0.419414264   
-0.715050153   -4.164272637   -0.502555257   
-0.769915115   -3.66387715   -0.549445879   
-0.741684621   -4.304519316   -0.682831137   
-0.363107451   -3.70973566   -0.947486287   
-0.307938379   -3.151767012   -0.935276534   
-0.292261627   -3.02635973   0.589184364   
-0.44531003   -3.320614886   0.555005833   
-0.291355185   -2.993491569   0.469101245   
-0.737039017   -3.510537218   0.529884856   
-0.597309698   -3.4706706   0.48548081   
-0.410687102   -3.050311834   0.394388903   
-0.295659074   -3.021303176   0.359947625   
-0.729084154   -3.472648111   0.39249466   
-0.594260463   -3.446475167   0.35197792   
-0.408524218   -3.025860562   0.278625564   
-0.29607527   -3.010377994   0.247363531   
-0.72854592   -3.462570229   0.261022524   
-0.596009803   -3.453740849   0.224924724   
-0.454869799   -3.360286638   0.185427158   
-0.29883194   -3.022161075   0.137267445   
-0.7284324   -3.456640833   0.131323513   
-0.58142849   -3.358749881   0.09402293   
-0.465360221   -3.426983771   0.062480526   
-0.331356853   -3.347513614   0.029179934   
-0.718429034   -3.402989686   0.002367399   
-0.580622203   -3.349917602   -0.030500963   
-0.444683121   -3.265310397   -0.060168905   
-0.323575312   -3.248654995   -0.091078115   
-0.719182505   -3.399512385   -0.124984374   
-0.554885798   -3.192819915   -0.146761608   
-0.44813475   -3.279524613   -0.181986536   
-0.326684604   -3.268880563   -0.212039005   
-0.807902273   -3.809032394   -0.282456109   
-0.720900603   -4.136515197   -0.344840519   
-0.547256448   -3.987790169   -0.368514757   
-0.800972428   -3.763736418   -0.421155017   
-0.725769978   -4.15032116   -0.501137918   
-0.557990987   -4.057074051   -0.526722614   
-0.787551637   -3.69149427   -0.553947162   
-0.764790698   -4.358665295   -0.691789299   
-0.374681803   -3.710532715   -0.94797898   
-0.317798783   -3.152715878   -0.935843017   
-0.300668682   -3.01665682   0.587472219   
-0.301426284   -3.00143178   0.470488216   
-0.747805731   -3.508259416   0.529884856   
-0.610177887   -3.481506534   0.487256134   
-0.419772662   -3.047072292   0.394134719   
-0.305525402   -3.026309873   0.360654117   
-0.744293243   -3.491780981   0.394913386   
-0.603626782   -3.437775804   0.351276969   
-0.417941775   -3.025579492   0.278716432   
-0.304907189   -3.005489038   0.247037522   
-0.739165475   -3.46031866   0.261022523   
-0.608157427   -3.460741887   0.22550113   
-0.466546647   -3.368765867   0.185973181   
-0.308913183   -3.029180518   0.137628665   
-0.741751583   -3.467093255   0.13180646   
-0.59485374   -3.374670288   0.094519243   
-0.481650009   -3.467133606   0.063239174   
-0.33928959   -3.323600963   0.028980428   
-0.731171088   -3.411525216   0.002374887   
-0.591418215   -3.351074776   -0.030527878   
-0.456492275   -3.276804401   -0.060406228   
-0.334970256   -3.261568502   -0.091468525   
-0.731497227   -3.40608371   -0.125307878   
-0.565374908   -3.195037225   -0.146942568   
-0.459852692   -3.290000692   -0.182645315   
-0.337734686   -3.277789666   -0.212683108   
-0.817275133   -3.795810492   -0.281660268   
-0.7400305   -4.170592648   -0.347869031   
-0.561841369   -4.00285733   -0.370064686   
-0.812935475   -3.763204808   -0.421372633   
-0.740588223   -4.159806657   -0.502555257   
-0.56919191   -4.046503466   -0.525574508   
-0.806621168   -3.724839331   -0.559319628   
-0.754878842   -4.225969254   -0.671092777   
-0.384257896   -3.692014219   -0.943544572   
-0.327271445   -3.149818253   -0.935276534   
-0.311929505   -3.035251998   0.591277081   
-0.309717427   -2.991647673   0.469101246   
-0.755636553   -3.492412195   0.527838985   
-0.622770227   -3.49034566   0.488758349   
-0.428565456   -3.041841435   0.393626321   
-0.314294642   -3.02041985   0.360065374   
-0.752690291   -3.478794997   0.393704037   
-0.614170894   -3.435907802   0.351276969   
-0.4259685   -3.015408305   0.277898565   
-0.3144374   -3.007513475   0.247282022   
-0.748932801   -3.45413623   0.260728227   
-0.618420535   -3.456895074   0.22537304   
-0.476039626   -3.361386889   0.185645564   
-0.31726553   -3.019276984   0.13722228   
-0.757474438   -3.488238462   0.132698041   
-0.624271397   -3.479091154   0.097497091   
-0.492847192   -3.469599207   0.06331143   
-0.352413588   -3.350389666   0.029223304   
-0.731218423   -3.361385644   0.002341534   
-0.60063554   -3.343339135   -0.030474052   
-0.467953145   -3.285286908   -0.060588775   
-0.347394059   -3.283388824   -0.092109923   
-0.744284671   -3.414564002   -0.125703295   
-0.574466175   -3.189354971   -0.146761608   
-0.466977816   -3.267816967   -0.181492457   
-0.349369099   -3.291623275   -0.213649255   
-0.831684704   -3.805952366   -0.282600829   
-0.763981648   -4.230091673   -0.353025668   
-0.824051239   -3.758750915   -0.421155017   
-0.748212376   -4.129179608   -0.499130077   
-0.578356878   -4.022158443   -0.522640528   
-0.74486698   -4.097264759   -0.651014059   
-0.606651517   -4.203309023   -0.705119659   
-0.397132297   -3.705273035   -0.947239884   
-0.337443617   -3.153567417   -0.936692742   
-0.319276234   -3.015731622   0.587662421   
-0.67875361   -3.744819093   0.667921241   
-0.319103711   -2.992648149   0.46940946   
-0.771863937   -3.515199924   0.531638484   
-0.638077449   -3.513760689   0.492308998   
-0.445955104   -3.09647267   0.400870968   
-0.324088718   -3.024378387   0.360654118   
-0.767409782   -3.494914854   0.395792942   
-0.628627044   -3.45554344   0.353479957   
-0.497411934   -3.444812036   0.317611323   
-0.323022756   -3.00058884   0.246792996   
-0.758240571   -3.44597821   0.260286824   
-0.630989462   -3.465781439   0.226077537   
-0.486779077   -3.36287514   0.185809372   
-0.328031296   -3.032194133   0.137854433   
-0.770108109   -3.494681296   0.133032393   
-0.630273441   -3.451592118   0.096780204   
-0.502340295   -3.460155052   0.063166926   
-0.362583131   -3.348298699   0.02921463   
-0.755970099   -3.424551352   0.002387139   
-0.608192415   -3.326725937   -0.03033949   
-0.476157684   -3.270973466   -0.060351459   
-0.354760109   -3.25746413   -0.09141275   
-0.757778551   -3.425925292   -0.126206537   
-0.584608466   -3.189542778   -0.146852088   
-0.475558297   -3.256488882   -0.180943469   
-0.357298607   -3.270695664   -0.21236105   
-0.847243694   -3.820910001   -0.283903131   
-0.772452227   -4.203222092   -0.35097938   
-0.594337564   -4.053526053   -0.375079106   
-0.834931452   -3.753294174   -0.420828651   
-0.74827378   -4.05850677   -0.490862436   
-0.589540553   -4.012514741   -0.521619978   
-0.754558515   -4.079415785   -0.648542849   
-0.6137877   -4.162390408   -0.698567977   
-0.405948243   -3.680916959   -0.941327341   
-0.346592224   -3.147750904   -0.935276535   
-0.327569688   -3.00595417   0.585950274   
-0.6900607   -3.741750629   0.667748389   
-0.32817576   -2.990673118   0.469255354   
-0.777266524   -3.48867571   0.527985136   
-0.653174217   -3.535166034   0.495586479   
-0.510326703   -3.467992194   0.4491687   
-0.333257034   -3.022382621   0.360536368   
-0.781370629   -3.507096454   0.397442084   
-0.638501163   -3.449685168   0.353079414   
-0.509867564   -3.456077225   0.318792716   
-0.329922822   -2.978780894   0.245081419   
-0.77489349   -3.470889029   0.26234676   
-0.645799893   -3.486398192   0.227550561   
-0.496947866   -3.360378189   0.185754775   
-0.337221892   -3.030180529   0.137809282   
-0.781916258   -3.49717825   0.133218136   
-0.641225009   -3.451607975   0.096835346   
-0.51075327   -3.443762391   0.062895978   
-0.373518091   -3.353133527   0.029266676   
-0.771062608   -3.442708349   0.002401433   
-0.62150425   -3.341557009   -0.030491993   
-0.485896502   -3.267519241   -0.060314951   
-0.36853548   -3.29013602   -0.092360904   
-0.774631401   -3.451862487   -0.127248978   
-0.607758473   -3.259423869   -0.150154677   
-0.485546843   -3.255014602   -0.180943469   
-0.36989379   -3.292392736   -0.213842493   
-0.860932176   -3.827050147   -0.284554282   
-0.732780092   -3.91966673   -0.327487998   
-0.52889646   -3.53168161   -0.326940607   
-0.844473006   -3.741987774   -0.419849466   
-0.750837288   -4.003488921   -0.484484559   
-0.600523326   -4.001859623   -0.520471874   
-0.751360026   -3.993578833   -0.635259956   
-0.626114159   -4.157561161   -0.698076654   
-0.416584068   -3.673876201   -0.939849205   
-0.356463536   -3.148578557   -0.935843016   
-0.337227674   -3.008837646   0.586711248   
-0.700810557   -3.735743593   0.667056974   
-0.337460271   -2.990634002   0.469409461   
-0.79036497   -3.496888778   0.529592614   
-0.664565797   -3.536066135   0.495996143   
-0.529366582   -3.522320071   0.456413347   
-0.345212738   -3.045027379   0.363362255   
-0.796947244   -3.526011172   0.39986081   
-0.65497234   -3.478999549   0.35628376   
-0.517797679   -3.436771389   0.317156957   
-0.341427947   -2.998550255   0.246792995   
-0.789944122   -3.48794843   0.263818131   
-0.651688899   -3.458902507   0.225885401   
-0.5112809   -3.385495319   0.187229021   
-0.347879217   -3.041041737   0.138351132   
-0.793083847   -3.496712084   0.133292434   
-0.64995543   -3.439802041   0.096559622   
-0.523412209   -3.456019027   0.063148858   
-0.38414487   -3.354952095   0.029292697   
-0.792255366   -3.487133775   0.002434106   
-0.632124779   -3.341599648   -0.030509937   
-0.495468544   -3.26304765   -0.060260182   
-0.375884049   -3.2651566   -0.091691618   
-0.784330688   -3.445571874   -0.127105182   
-0.626317213   -3.302692157   -0.152235758   
-0.497785941   -3.268316277   -0.181766937   
-0.383197741   -3.319000008   -0.215645981   
-0.874666326   -3.833142314   -0.285205433   
-0.73512198   -3.866486611   -0.323231719   
-0.537170355   -3.513307548   -0.325390707   
-0.855283856   -3.736472498   -0.419523072   
-0.735769103   -3.85777993   -0.467122471   
-0.628568556   -4.102939802   -0.533866351   
-0.724434913   -3.786500491   -0.60267064   
-0.636617938   -4.140994991   -0.695619751   
-0.357589063   -3.074118066   -0.914033082   
-0.345783038   -3.001937085   0.58556976   
-0.709868912   -3.720998452   0.664809819   
-0.347544207   -2.997436263   0.470642322   
-0.674295439   -3.528172587   0.495176816   
-0.534303911   -3.482443239   0.451456476   
-0.354208454   -3.040994967   0.363009009   
-0.821753173   -3.584584375   0.406787197   
-0.668823136   -3.493586525   0.357986069   
-0.527279392   -3.428276605   0.316520826   
-0.350973135   -3.000458456   0.247037523   
-0.810465104   -3.52827552   0.267055169   
-0.672062094   -3.507853072   0.229215721   
-0.530336622   -3.440161295   0.190341308   
-0.358140033   -3.047897485   0.138712366   
-0.801791626   -3.485497478   0.132958096   
-0.657865001   -3.424048568   0.0961736   
-0.533248902   -3.449456534   0.063058542   
-0.394669501   -3.355744004   0.029310046   
-0.81260515   -3.526588597   0.002463375   
-0.640484942   -3.329825028   -0.030420229   
-0.505170855   -3.259536136   -0.060223674   
-0.386838591   -3.271929738   -0.091914711   
-0.79804508   -3.456781845   -0.127608438   
-0.634555432   -3.290946029   -0.151783359   
-0.508117366   -3.268746888   -0.181876743   
-0.393730982   -3.320781676   -0.215839219   
-0.884848056   -3.823638987   -0.284698973   
-0.743765055   -3.847577923   -0.321840248   
-0.556083593   -3.563791354   -0.330222796   
-0.86854137   -3.741577278   -0.420393448   
-0.736448607   -3.797988597   -0.460154003   
-0.647894192   -4.144108686   -0.539479318   
-0.733218847   -3.769712778   -0.600353867   
-0.649166428   -4.138047713   -0.695455957   
-0.367246108   -3.074911215   -0.914599624   
-0.357413177   -3.021335709   0.589564879   
-0.357205827   -3.000280492   0.471258725   
-0.361767681   -3.025103578   0.361242833   
-0.360533267   -3.002336345   0.247282022   
-0.833955845   -3.580164422   0.271175013   
-0.690833916   -3.546915418   0.23190559   
-0.367249927   -3.044800657   0.138622051   
-0.405202611   -3.356502982   0.029327394   
-0.651081441   -3.329807022   -0.03043817   
-0.511264621   -3.233282076   -0.059767296   
-0.395068742   -3.255842558   -0.091496413   
-0.870149273   -3.717039755   -0.137313863   
-0.652334775   -3.32819678   -0.153592986   
-0.516266641   -3.255338694   -0.181217963   
-0.402711777   -3.309651754   -0.215195116   
-0.894979737   -3.814109375   -0.284192541   
-0.752491249   -3.829630966   -0.320530615   
-0.566544872   -3.559118172   -0.329949271   
-0.882293744   -3.74857146   -0.421481413   
-0.74310476   -3.770380618   -0.457083171   
-0.663260628   -4.158752024   -0.541647915   
-0.743631031   -3.761630143   -0.599427192   
-0.661391121   -4.133114353   -0.694964577   
-0.376561422   -3.072818221   -0.914316383   
-0.366408865   -2.999170503   0.471258726   
-0.560041916   -3.506524541   0.45501526   
-0.371046877   -3.023979559   0.361242834   
