X     Y     Z
12.91988746   -3.366620376   -0.60464516   
11.64012014   -2.586341297   -0.655590708   
10.33864324   -1.907412682   -0.678563472   
9.285561583   -2.789539643   -0.703318606   
8.488916813   -2.216285534   -0.720539085   
7.742976789   -1.725107661   -0.726271312   
7.195556441   -1.330130887   -0.742119657   
6.528645597   -1.966161429   -0.746241879   
6.124147166   -1.602659891   -0.752947098   
5.807210056   -1.295634444   -0.765272262   
5.517633601   -1.021751977   -0.777154331   
5.033569272   -1.518684717   -0.771605563   
4.814659857   -1.262936808   -0.778127818   
4.649890211   -1.039983382   -0.791109848   
4.487263765   -0.831434868   -0.804446686   
4.086074586   -1.235927867   -0.787880864   
3.972124575   -1.044598656   -0.798058088   
3.867005144   -0.867578514   -0.809694554   
3.708007056   -0.686847314   -0.809551924   
3.47108974   -1.054277134   -0.810015369   
3.371247153   -0.8892841   -0.812567921   
3.312430756   -0.743521881   -0.826446021   
3.169388075   -0.58810694   -0.819381005   
2.980148934   -0.909084697   -0.82070815   
2.914915957   -0.771360016   -0.824709287   
2.828722351   -0.635724585   -0.823638628   
2.769536809   -0.51341112   -0.831891922   
35.61237676   -7.99617051   0.659396203   
37.78078729   -7.053378743   0.333392007   
28.9887169   -8.775919355   0.020616385   
38.36319961   -10.10372265   -0.355901394   
24.27140555   -5.459532451   -0.454224137   
17.67850378   -3.311615614   -0.501766188   
14.97090163   -4.539072841   -0.562699249   
12.95972556   -3.419494904   -0.606997695   
11.65258583   -2.626651499   -0.656743581   
10.34941699   -1.942251317   -0.67965841   
9.278867915   -2.818594072   -0.703463325   
8.49267639   -2.245120693   -0.721439413   
7.729877328   -1.747098434   -0.725541931   
7.189486296   -1.351832625   -0.741917836   
6.528288473   -1.987919181   -0.746894669   
6.118241559   -1.621186566   -0.752828962   
5.802240397   -1.313225718   -0.765144649   
5.500844884   -1.036108126   -0.775233691   
5.027939835   -1.533831572   -0.771460366   
4.810762833   -1.277702099   -0.778127819   
4.63032283   -1.050533621   -0.788325358   
4.481788526   -0.844650519   -0.80392592   
4.079442337   -1.247595119   -0.787336375   
3.960363557   -1.054506806   -0.796341413   
3.867190831   -0.880090509   -0.810295068   
3.734706974   -0.703650854   -0.815848678   
3.451045471   -1.059764301   -0.806092787   
3.37414853   -0.901130544   -0.813929768   
3.2864497   -0.748288105   -0.820532704   
3.158045339   -0.596030297   -0.816917427   
2.977345691   -0.918223404   -0.820708148   
2.919057538   -0.782046502   -0.826556016   
2.838950962   -0.647179425   -0.827191124   
2.772660856   -0.522793997   -0.833308129   
35.60717582   -8.109830764   0.659757467   
37.72851572   -7.163473101   0.333123131   
28.32864698   -8.671057492   0.020165778   
38.32332421   -10.21905294   -0.355820659   
24.60156436   -5.613147883   -0.460722981   
17.62309105   -3.357232024   -0.500483436   
14.98939207   -4.594940249   -0.563921442   
12.9482087   -3.458980918   -0.606952455   
11.63960601   -2.661275968   -0.656469101   
10.38065798   -1.981102438   -0.682106015   
9.263502878   -2.844998176   -0.702956864   
8.501152294   -2.275288018   -0.722749046   
7.753600604   -1.77748066   -0.728277069   
7.180419179   -1.372949066   -0.741413342   
6.52880912   -2.009985851   -0.747656237   
6.13529797   -1.645867063   -0.755545502   
5.791417497   -1.32946714   -0.764251712   
5.489857313   -1.051489016   -0.774136249   
5.021319438   -1.548666743   -0.771169971   
4.806820425   -1.292455234   -0.77812782   
4.615541867   -1.062079689   -0.786359896   
4.481110681   -0.858767175   -0.804273118   
4.069958975   -1.258362033   -0.786247401   
3.967535744   -1.069462511   -0.798439557   
3.860653985   -0.891069368   -0.809494399   
3.688358465   -0.706642699   -0.806193619   
3.46548762   -1.075844927   -0.810233285   
3.363846898   -0.909444637   -0.812113973   
3.305912801   -0.763395383   -0.825972939   
3.151442756   -0.604802916   -0.815685637   
2.998517692   -0.934836762   -0.827330881   
2.913851803   -0.790240974   -0.825764586   
2.845386943   -0.657836282   -0.829650589   
2.771043851   -0.531297953   -0.833308129   
37.81338008   -7.299848603   0.334068609   
28.25223472   -8.742556169   0.020130382   
38.26862244   -10.33032475   -0.355605367   
24.47025871   -5.662226619   -0.458587108   
17.64901859   -3.418315864   -0.501515252   
14.99717886   -4.647709107   -0.564748158   
12.92307092   -3.494777529   -0.606273856   
11.64305842   -2.699679683   -0.657127852   
10.39314443   -2.016552066   -0.683329817   
9.248063848   -2.871334744   -0.702450404   
8.534534761   -2.312304996   -0.726186804   
7.747140505   -1.801034532   -0.728185932   
7.173243625   -1.3944023   -0.74111067   
6.524510283   -2.030597157   -0.747873854   
6.12351138   -1.662860592   -0.754718726   
5.782481377   -1.346104407   -0.763613882   
5.478827245   -1.066812118   -0.773038749   
5.01654478   -1.564064639   -0.771169972   
4.806645903   -1.308234165   -0.778745622   
4.603615656   -1.074217466   -0.784885755   
4.464921736   -0.869874413   -0.801842738   
4.085789842   -1.277003128   -0.790058819   
3.971812006   -1.083696769   -0.799965494   
3.827374835   -0.895764779   -0.803088869   
3.74375477   -0.72917023   -0.818787128   
3.450996366   -1.082965123   -0.807618191   
3.372313236   -0.922845213   -0.814837666   
3.272336018   -0.766224117   -0.818167353   
3.160036171   -0.616509953   -0.818395563   
2.980878599   -0.93938124   -0.823255353   
2.927226389   -0.803517395   -0.830249538   
2.827434025   -0.66283029   -0.825004945   
2.755280893   -0.537044678   -0.829059451   
35.78356854   -8.381286357   0.663966211   
28.22432578   -8.828892535   0.0201297   
38.2608657   -10.45427127   -0.35582963   
24.38366077   -5.721057949   -0.457291005   
17.63256432   -3.471287782   -0.501347942   
15.03816154   -4.711025544   -0.566833069   
12.91132504   -3.534144592   -0.606228617   
11.58612173   -2.723961233   -0.654382939   
10.41823889   -2.054606924   -0.685390946   
9.230646334   -2.897005826   -0.701799282   
8.594681548   -2.356928134   -0.73191642   
7.743517048   -1.825250813   -0.728368263   
7.16502756   -1.415631568   -0.740707027   
6.516353267   -2.050007961   -0.747656237   
6.096358633   -1.67558656   -0.752002185   
5.777359409   -1.363610557   -0.763486329   
5.483301957   -1.085154341   -0.774136249   
5.009835021   -1.578852955   -0.770879577   
4.798799463   -1.321925035   -0.778127819   
4.591658376   -1.086292022   -0.783411671   
4.467062346   -0.884524996   -0.80271076   
4.08466618   -1.290420888   -0.790603309   
3.962791569   -1.09430922   -0.798821086   
3.827468481   -0.90818139   -0.803689385   
3.705053625   -0.733437722   -0.81081125   
3.477426926   -1.102990013   -0.814591696   
3.366650308   -0.932407135   -0.814156742   
3.276587348   -0.77783084   -0.819823053   
3.152425857   -0.6250709   -0.816917427   
2.966004317   -0.944706829   -0.819943959   
2.916383013   -0.810170553   -0.827875127   
2.811349247   -0.668165249   -0.820905932   
2.749857095   -0.54474979   -0.827926483   
35.7226657   -8.482712877   0.663315924   
41.37177721   -8.250424911   0.365946216   
28.17231693   -8.90760374   0.020112003   
38.23053876   -10.57213847   -0.355847571   
24.22689858   -5.762753026   -0.45468053   
17.61006895   -3.523014235   -0.501013262   
14.99124446   -4.746883253   -0.565610876   
12.88790564   -3.57027239   -0.605640497   
11.60976235   -2.767133723   -0.656194563   
10.47352997   -2.098913626   -0.68944883   
9.189391168   -2.915057709   -0.699339339   
8.603735638   -2.387816108   -0.73330789   
7.760158155   -1.854322215   -0.730465214   
7.162601676   -1.437998487   -0.740908848   
6.503402038   -2.067881627   -0.746894669   
6.098843145   -1.696410906   -0.752947098   
5.769290044   -1.3804057   -0.762976053   
5.489658209   -1.103924561   -0.77550811   
5.010624381   -1.596017294   -0.771750761   
4.786155955   -1.334253478   -0.776737779   
4.588303641   -1.100373903   -0.783411669   
4.467224014   -0.898808328   -0.803231526   
4.110665386   -1.312517981   -0.796411244   
3.952797814   -1.104612448   -0.797485884   
3.831332394   -0.921523503   -0.805090572   
3.714288366   -0.747114852   -0.813329963   
3.472167724   -1.113057531   -0.814155865   
3.360022871   -0.941680223   -0.813248844   
3.29969153   -0.794017186   -0.826209453   
3.164744625   -0.637610723   -0.820612795   
2.957569115   -0.952024164   -0.818415637   
2.890669352   -0.81258833   -0.821279576   
2.808350917   -0.676561876   -0.820632645   
2.757574825   -0.555076164   -0.830758955   
35.68189058   -8.588759316   0.663044961   
41.33156944   -8.374334795   0.365816099   
19.77674444   -6.319872973   0.014132244   
38.22199891   -10.6961153   -0.356071863   
24.43168714   -5.890720191   -0.458860932   
17.57566739   -3.572246152   -0.50034402   
15.02420085   -4.808082907   -0.567408194   
12.8932447   -3.614379011   -0.606409576   
11.57889519   -2.797345868   -0.654931957   
10.469975   -2.131633228   -0.689642068   
9.191802275   -2.946890614   -0.700207541   
8.597329163   -2.414470383   -0.733389727   
7.701200482   -1.865228592   -0.725450794   
7.166929661   -1.461755778   -0.741816925   
6.506491517   -2.090865269   -0.747982633   
6.086918989   -1.713230672   -0.752120322   
5.764063991   -1.397865406   -0.762848499   
5.493038938   -1.122149195   -0.7764684   
5.004762241   -1.611078966   -0.771605563   
4.776334283   -1.347321508   -0.775811045   
4.593533805   -1.116542512   -0.784885755   
4.448042716   -0.909156716   -0.800280381   
4.045787429   -1.305493975   -0.784613934   
3.944666967   -1.115398728   -0.796532206   
3.845621075   -0.937450279   -0.808693672   
3.713894734   -0.75889808   -0.813749759   
3.475235886   -1.125810184   -0.815681327   
3.357117995   -0.951984187   -0.813248844   
3.303847539   -0.805748227   -0.827865208   
3.175117093   -0.649843317   -0.823815413   
2.957393079   -0.96199069   -0.819179826   
2.901151565   -0.825147251   -0.824973096   
2.802524118   -0.684261981   -0.819539556   
2.781228113   -0.56872135   -0.838406587   
35.66411565   -8.700322142   0.663207562   
41.10490065   -8.459775648   0.364037884   
19.75535886   -6.379903028   0.014130883   
38.19381474   -10.81468994   -0.356116716   
24.40864428   -5.96446129   -0.458769677   
17.56951887   -3.627161294   -0.500483435   
15.00747692   -4.85353925   -0.567336311   
12.90708235   -3.661005613   -0.607585814   
11.57025859   -2.832856244   -0.654931957   
10.41647844   -2.154044368   -0.686550316   
9.190308475   -2.977536144   -0.700786361   
8.585087554   -2.439473039   -0.732980481   
7.730258778   -1.897392465   -0.728732925   
7.162411308   -1.483736657   -0.741816925   
6.513282591   -2.115115575   -0.749505829   
6.080679127   -1.731624977   -0.752002186   
5.755895781   -1.414595766   -0.762338224   
5.491510092   -1.139398857   -0.77674276   
4.974392476   -1.618162032   -0.767685126   
4.782629142   -1.364951461   -0.777510017   
4.596791693   -1.132281582   -0.786032309   
4.438482969   -0.921397594   -0.799065222   
4.038958089   -1.316985621   -0.784069387   
3.94594545   -1.128845542   -0.797485883   
3.865555181   -0.954883117   -0.813497807   
3.709634351   -0.769891224   -0.813329964   
3.460635205   -1.132823217   -0.813066292   
3.35699011   -0.963084848   -0.813929769   
3.296643758   -0.814714951   -0.826682533   
3.168363865   -0.658595154   -0.822583623   
2.962695769   -0.973776888   -0.821472281   
2.873578476   -0.826842466   -0.817849866   
2.827491351   -0.699556637   -0.827464412   
2.756934127   -0.572570965   -0.831608681   
35.73819999   -8.834650464   0.665086122   
41.15607672   -8.60200523   0.364723159   
19.73094003   -6.438930256   0.014127479   
38.17968145   -10.93732381   -0.356296126   
24.18350966   -5.988131009   -0.454881338   
17.56320006   -3.682072194   -0.500622851   
15.03241273   -4.912596859   -0.568846037   
12.88138679   -3.696453633   -0.606907216   
11.57023503   -2.870503899   -0.65542602   
10.46353487   -2.197271164   -0.690092918   
9.183974207   -3.006648367   -0.701003441   
8.584268503   -2.467727869   -0.733553461   
7.723434537   -1.920859397   -0.728641788   
7.140300947   -1.502017207   -0.740000771   
6.515263235   -2.137877393   -0.750485013   
6.078200475   -1.751096838   -0.752356535   
5.760190595   -1.434405033   -0.763486328   
5.484111795   -1.15542429   -0.77619404   
4.993842557   -1.641448335   -0.771460365   
4.773672752   -1.378247588   -0.776737778   
4.602867612   -1.148767829   -0.787670244   
4.429853463   -0.933791578   -0.798023631   
4.046107117   -1.33306345   -0.786247401   
3.949064425   -1.142856362   -0.798821086   
3.859755968   -0.966024357   -0.81289729   
3.692904121   -0.778244342   -0.810181586   
3.446950885   -1.140063885   -0.810669114   
3.33998995   -0.969307897   -0.810525151   
3.284703454   -0.822465055   -0.824317183   
3.173914614   -0.669913724   -0.82455445   
2.950516998   -0.979814052   -0.818925077   
2.882141892   -0.838889359   -0.821015765   
2.821599479   -0.70729238   -0.826371321   
2.763610134   -0.582807492   -0.83415791   
40.9847238   -8.697507919   0.363439364   
28.90517099   -9.531041832   0.020717126   
31.57074857   -9.148963529   -0.294881526   
24.39971019   -6.121172727   -0.459299055   
17.57430817   -3.740724646   -0.501264256   
15.09793159   -4.985326781   -0.571901431   
12.88341686   -3.739854495   -0.607540575   
11.54394389   -2.901606114   -0.654437835   
10.43917677   -2.225617115   -0.688933548   
9.169024833   -3.032930994   -0.70056934   
8.565172683   -2.490712844   -0.732571236   
7.7126768   -1.943328891   -0.728185932   
7.123983625   -1.521422902   -0.738789962   
6.510560908   -2.158481486   -0.750702571   
6.079473017   -1.771680956   -0.753183311   
5.751915909   -1.451099822   -0.762976053   
5.474729317   -1.171000826   -0.7753709   
4.989722471   -1.657073261   -0.771605563   
4.74950612   -1.387070177   -0.773494273   
4.598365294   -1.162641945   -0.787506451   
4.425041445   -0.946965596   -0.797676432   
4.04386425   -1.346091619   -0.786610392   
3.945539531   -1.154966648   -0.798821086   
3.852975335   -0.976898192   -0.812096621   
3.690499191   -0.789570348   -0.810181587   
3.431403439   -1.146612505   -0.807836163   
3.333262422   -0.978453031   -0.809617252   
3.26709608   -0.828716258   -0.820532705   
3.16047237   -0.677211233   -0.821598179   
2.95666509   -0.991937279   -0.821472281   
2.874002773   -0.846093277   -0.819432843   
2.823145675   -0.716892589   -0.827464411   
2.774000359   -0.593893485   -0.837840105   
40.99206032   -8.830576135   0.363742961   
28.56650581   -9.516640354   0.020495226   
31.27192714   -9.166458442   -0.292351756   
24.35271513   -6.188859491   -0.458769677   
17.60378733   -3.803490593   -0.502435488   
15.07877409   -5.030358152   -0.571757664   
12.87092381   -3.779081277   -0.607495335   
11.53208416   -2.93626969   -0.654273147   
10.48301731   -2.268609412   -0.692282852   
9.156839588   -3.0600986   -0.700352261   
8.543149478   -2.512760278   -0.731343441   
7.707643425   -1.967228283   -0.728277068   
7.11344885   -1.542007159   -0.738184558   
6.505793158   -2.179076957   -0.750920187   
6.081628578   -1.792570162   -0.754128164   
5.748398078   -1.468985141   -0.763103608   
5.457559072   -1.184849361   -0.773450319   
4.98461523   -1.672373777   -0.771605563   
4.747123225   -1.402194678   -0.773803203   
4.5957321   -1.176988825   -0.787670243   
4.418266217   -0.959700801   -0.79698204   
4.06208569   -1.366014457   -0.7909663   
3.931623776   -1.164000538   -0.796722943   
3.821490872   -0.981403132   -0.806091452   
3.701435845   -0.803793668   -0.813120095   
3.426944718   -1.156822356   -0.80761819   
3.317174228   -0.984794277   -0.806439611   
3.25512768   -0.836317845   -0.818167355   
3.16974441   -0.689375867   -0.824554451   
2.963682321   -1.004417852   -0.824274235   
2.853828635   -0.849676957   -0.814420212   
2.828386054   -0.72746743   -0.829650591   
2.737489964   -0.59486605   -0.827360002   
35.66223238   -7.796980519   0.316659523   
28.30781518   -9.527045342   0.020330501   
31.219691   -9.255251396   -0.292127464   
24.21742075   -6.233635526   -0.456579057   
17.63304472   -3.866472605   -0.503606719   
15.11251538   -5.093191732   -0.573626866   
12.86980278   -3.821678979   -0.607992974   
11.52302196   -2.971635759   -0.654273147   
10.50622361   -2.307396069   -0.694279607   
9.149298166   -3.088814942   -0.700496981   
8.511518403   -2.531854575   -0.729297154   
7.714105573   -1.994105754   -0.729462306   
7.109656017   -1.564037362   -0.738285468   
6.505668747   -2.201256453   -0.751681756   
6.085617014   -1.814056648   -0.755309232   
5.745784733   -1.48711113   -0.763358717   
5.442289913   -1.199029831   -0.771804098   
4.994453389   -1.69273982   -0.773928773   
4.752265682   -1.419579902   -0.77534768   
4.559632962   -1.182661786   -0.782101322   
4.410492421   -0.972191383   -0.796114077   
4.056013592   -1.377837708   -0.790603309   
3.925212861   -1.175212415   -0.796150679   
3.794756808   -0.986957339   -0.801087166   
3.70563614   -0.816618656   -0.814589292   
3.422455832   -1.16701572   -0.807400276   
3.339322066   -1.002527551   -0.812567921   
3.250665789   -0.845811202   -0.817694272   
3.144900803   -0.69408431   -0.818641908   
2.956012352   -1.011939521   -0.823000604   
2.888153046   -0.869551566   -0.824973095   
2.835449505   -0.738566055   -0.832383284   
2.74127125   -0.604500942   -0.82905945   
35.55907131   -7.888811027   0.315956933   
27.90920852   -9.488314623   0.020065037   
29.40573174   -8.815727301   -0.275405768   
24.31428257   -6.338168673   -0.458769677   
17.57914117   -3.911216611   -0.502407593   
15.09965672   -5.140498513   -0.573734691   
12.88193727   -3.868327817   -0.609124031   
11.51674873   -3.007730785   -0.654437835   
10.50006957   -2.339835129   -0.694343981   
9.128450508   -3.113007023   -0.699628779   
8.48557639   -2.5525009   -0.727742008   
7.732036061   -2.024067524   -0.731741588   
7.113563093   -1.587792707   -0.739193545   
6.508291294   -2.224420114   -0.75276972   
6.085727248   -1.834437986   -0.756017929   
5.743114093   -1.505234849   -0.763613883   
5.45115294   -1.21853008   -0.77358747   
4.985492612   -1.706772844   -0.773347986   
4.759237669   -1.437581241   -0.777201145   
4.576974311   -1.202158254   -0.785704722   
4.409410962   -0.986147883   -0.796461273   
4.043395835   -1.387402387   -0.788969842   
3.932863294   -1.190662579   -0.798439558   
3.788868542   -0.997846271   -0.800486649   
3.67925917   -0.822649966   -0.809341996   
3.41793654   -1.177192363   -0.80718236   
3.354868694   -1.018425635   -0.817107409   
3.252753391   -0.857017885   -0.818876947   
3.151268479   -0.705635423   -0.820859141   
2.939185065   -1.01626372   -0.819179827   
2.883626306   -0.877846346   -0.824445475   
2.829449884   -0.746280316   -0.831290196   
2.750634759   -0.615420966   -0.832458406   
35.54250526   -7.999623772   0.316026313   
27.55367112   -9.461844794   0.019830202   
28.93643364   -8.771877365   -0.271261219   
24.50933416   -6.469382165   -0.462822316   
17.62361433   -3.977895672   -0.504025025   
15.07152915   -5.182574844   -0.573267391   
12.8977295   -3.916247831   -0.61043599   
11.47850778   -3.035391633   -0.652790899   
10.49284116   -2.372037748   -0.694343981   
9.117914354   -3.14067332   -0.69955642   
8.457681645   -2.572431901   -0.726023129   
7.736378527   -2.050586166   -0.732744496   
7.115450704   -1.611147338   -0.73989986   
6.511772047   -2.247944954   -0.753966521   
6.076271086   -1.851942135   -0.755545502   
5.733675628   -1.521575429   -0.762976053   
5.454150805   -1.236781675   -0.77454776   
4.992388946   -1.726263363   -0.775235606   
4.749135451   -1.450443994   -0.776274413   
4.571357775   -1.215687456   -0.785377134   
4.40348381   -0.999017498   -0.79594045   
4.02146581   -1.393682582   -0.785521414   
3.907602799   -1.196114466   -0.794052536   
3.777269106   -1.00719382   -0.798685098   
3.668136613   -0.83198749   -0.807453006   
3.423526783   -1.190879335   -0.809361566   
3.36290097   -1.032142587   -0.819831105   
3.253864087   -0.867994847   -0.819823054   
3.133021964   -0.711650576   -0.81667108   
2.944269972   -1.028145404   -0.821472282   
2.879997562   -0.886405327   -0.824181606   
2.821570695   -0.753468373   -0.829650589   
2.757150966   -0.625767293   -0.835007634   
35.56263797   -8.118867779   0.316425336   
27.28170173   -9.462120261   0.019655268   
28.33096937   -8.683329124   -0.265833858   
24.48743956   -6.544028829   -0.462785808   
17.71753687   -4.056261131   -0.507064683   
15.02912547   -5.219609082   -0.572260907   
12.90284383   -3.96107644   -0.611250367   
11.47589271   -3.072400519   -0.653175229   
10.48259669   -2.403549027   -0.694150743   
9.119539834   -3.172564375   -0.700424621   
8.434507981   -2.593680575   -0.724713496   
7.736783678   -2.076118116   -0.733382683   
7.11144407   -1.633192406   -0.740000771   
6.518924817   -2.272821134   -0.755598496   
6.080050403   -1.873499214   -0.756726569   
5.731854081   -1.53993089   -0.763358716   
5.463845781   -1.256617159   -0.7764684   
4.981464812   -1.739614464   -0.774364423   
4.753159439   -1.467630751   -0.777664453   
4.563796137   -1.22868069   -0.78472196   
4.395599167   -1.01141833   -0.795072485   
4.012530429   -1.40438936   -0.784613934   
3.908603529   -1.209548178   -0.795006268   
3.812943449   -1.02924622   -0.806892122   
3.684623559   -0.847621119   -0.811650842   
3.411570005   -1.198465748   -0.807400276   
3.377391411   -1.047938479   -0.824143619   
3.248371677   -0.877213582   -0.81911346   
3.140268259   -0.723434985   -0.819134658   
2.944749685   -1.038459931   -0.822491164   
2.866212296   -0.891798036   -0.821015764   
2.785815963   -0.753084307   -0.819812842   
2.730918364   -0.628629659   -0.827643242   
27.14967203   -9.509741357   0.019581075   
28.29177918   -8.76635875   -0.265717242   
24.48655005   -6.624346878   -0.463150886   
17.71474677   -4.11285929   -0.507343573   
15.17429845   -5.322253234   -0.578407695   
12.89444689   -4.001827317   -0.611431327   
11.46159457   -3.10628768   -0.652900691   
10.48003354   -2.436828016   -0.694472846   
9.136110721   -3.209784546   -0.702450404   
8.417945578   -2.616882309   -0.723976842   
7.732299745   -2.100366546   -0.733565014   
7.076362373   -1.648006795   -0.73687284   
6.504420017   -2.290169229   -0.75472809   
6.071429956   -1.891257745   -0.75637222   
5.712746633   -1.55360453   -0.761445228   
5.441636469   -1.269099531   -0.773861889   
4.982635541   -1.757192706   -0.775380802   
4.747690933   -1.481911953   -0.777510016   
4.558101707   -1.242157684   -0.784394432   
4.395352903   -1.025570424   -0.795593253   
4.005421217   -1.415709922   -0.784069387   
3.92361172   -1.227395428   -0.798821085   
3.793700838   -1.036549334   -0.803489232   
3.695335922   -0.862031015   -0.814589291   
3.410636379   -1.209905462   -0.808054077   
3.332343609   -1.045179494   -0.813929767   
3.245665081   -0.887175292   -0.81911346   
3.148415678   -0.735490966   -0.821844585   
2.912398539   -1.037108615   -0.81434011   
2.854261531   -0.897693377   -0.818377544   
2.785348251   -0.762135242   -0.82035936   
2.736448487   -0.638749021   -0.829909231   
35.75455317   -8.393829073   0.3185852   
27.13545295   -9.598326092   0.019591966   
28.27143113   -8.855208111   -0.265780035   
24.55965177   -6.725052948   -0.464921651   
17.68647587   -4.16352305   -0.506897372   
15.08348034   -5.342423628   -0.575567951   
12.89068712   -4.044059191   -0.611838486   
11.47030615   -3.146455393   -0.653943772   
10.47833579   -2.470342644   -0.694859263   
9.121520672   -3.236131155   -0.702088663   
8.407025503   -2.641799645   -0.723731272   
7.734461418   -2.126454983   -0.73438559   
7.056748736   -1.666279521   -0.735359358   
6.502046323   -2.311778808   -0.755272101   
6.056127498   -1.906893454   -0.755191153   
5.688828296   -1.56585947   -0.758893911   
5.451212577   -1.288979393   -0.77578247   
4.980017684   -1.773466675   -0.775816452   
4.762908953   -1.502713372   -0.780753522   
4.561877177   -1.258234281   -0.785704721   
4.392185459   -1.039050369   -0.795593251   
4.014951593   -1.432950049   -0.786791887   
3.923571774   -1.240610861   -0.799584027   
3.799946269   -1.050794727   -0.805490936   
3.67554731   -0.869313464   -0.810811251   
3.394964061   -1.216084931   -0.80522107   
3.317981113   -1.05186635   -0.811206075   
3.230754208   -0.89376088   -0.816038574   
3.150859789   -0.746263492   -0.823076316   
2.951062129   -1.061089735   -0.826057251   
2.868040291   -0.911705729   -0.823126363   
2.786705039   -0.771703897   -0.821452448   
2.731676194   -0.64647872   -0.82905945   
35.69944892   -8.496537327   0.318324966   
24.45207627   -8.733661363   0.017673814   
19.81769857   -6.274150325   -0.186486486   
24.46567683   -6.780076006   -0.463534263   
17.67556512   -4.21822881   -0.506953162   
15.18181913   -5.429731732   -0.579953363   
12.8839332   -4.085400274   -0.612109926   
11.46156112   -3.181898023   -0.653998668   
10.46100201   -2.50015853   -0.694215176   
9.094648626   -3.258045794   -0.700786362   
8.393180898   -2.665769446   -0.723240188   
7.739413943   -2.153377069   -0.735479634   
7.044830708   -1.686300183   -0.734653043   
6.507085908   -2.336082276   -0.756686459   
6.044571457   -1.923657663   -0.754482514   
5.694507161   -1.586232813   -0.760297123   
5.44337929   -1.304773799   -0.775233691   
4.987587816   -1.793423721   -0.777849269   
4.756393589   -1.516718369   -0.780444592   
4.552294441   -1.27063269   -0.78472196   
4.374612208   -1.049075597   -0.792989303   
4.016087602   -1.447261316   -0.787880865   
3.901981067   -1.2469649   -0.795959945   
3.79009978   -1.060599585   -0.804089748   
3.659552089   -0.877394398   -0.8078728   
3.391217308   -1.226494885   -0.805221071   
3.292479343   -1.054909035   -0.805758687   
3.198056009   -0.895286636   -0.808469499   
3.140073717   -0.753890397   -0.82085914   
2.94415687   -1.068818556   -0.825038368   
2.855127958   -0.917255112   -0.820224275   
2.791734304   -0.782326251   -0.823638626   
2.728747242   -0.654632637   -0.828776207   
35.67224292   -8.605787162   0.318316294   
24.42516836   -8.808638114   0.017673814   
19.79835648   -6.334921024   -0.186486486   
24.44668685   -6.855643496   -0.463570771   
17.65088087   -4.269616583   -0.506618482   
15.15662982   -5.473228512   -0.579629829   
12.87799792   -4.127042197   -0.612426606   
11.46904804   -3.22190746   -0.654986853   
10.45425158   -2.532475516   -0.694279607   
9.087423598   -3.286950146   -0.701003441   
8.384963358   -2.691506836   -0.723240188   
7.733729586   -2.177381046   -0.73557077   
7.050259   -1.710485744   -0.735762941   
6.513906847   -2.361116016   -0.758318434   
6.041476796   -1.943105101   -0.754836804   
5.702978779   -1.607462816   -0.762083057   
5.385447991   -1.308372347   -0.767551366   
4.974621887   -1.806015893   -0.776687633   
4.744195178   -1.528879267   -0.779208988   
4.550273302   -1.285129197   -0.785049546   
4.358932876   -1.059468074   -0.790732553   
4.028262745   -1.465627835   -0.791147796   
3.885993086   -1.2550082   -0.79348033   
3.771744987   -1.067951727   -0.800887012   
3.646392292   -0.886078076   -0.805563957   
3.398439583   -1.240910145   -0.807836163   
3.296639822   -1.067405201   -0.807574483   
3.224274506   -0.913302805   -0.815802005   
3.133037629   -0.762374682   -0.819627351   
2.92996849   -1.073852764   -0.821981723   
2.863309811   -0.929584348   -0.823390176   
2.759706524   -0.782490561   -0.814893969   
2.723930376   -0.662321479   -0.827926483   
35.63887375   -8.713525751   0.318255586   
19.77787705   -6.395324039   -0.186477516   
24.61983499   -6.985743413   -0.467258302   
17.75905627   -4.353498756   -0.510104341   
15.14258362   -5.520729772   -0.579737713   
12.86717641   -4.167147698   -0.612517086   
11.46007016   -3.257351802   -0.655041749   
10.45127906   -2.565726481   -0.694601652   
9.082917865   -3.316867304   -0.701437542   
8.38140681   -2.718756469   -0.723649434   
7.735632585   -2.203552868   -0.736391346   
7.059470451   -1.735670614   -0.737276423   
6.516901058   -2.384847272   -0.759515177   
6.041153418   -1.963472667   -0.755545502   
5.703743195   -1.626583789   -0.762848499   
5.378523413   -1.324178023   -0.767139797   
4.96069692   -1.8182049   -0.775380802   
4.744179377   -1.544956735   -0.779981284   
4.545361007   -1.298812127   -0.784885755   
4.367136808   -1.075662438   -0.792815735   
4.004362647   -1.470859159   -0.787336378   
3.902654986   -1.273624479   -0.797676617   
3.779753229   -1.082756017   -0.803289021   
3.608530095   -0.88861088   -0.797798005   
3.392784972   -1.250655493   -0.807400275   
3.300754404   -1.07993695   -0.809390278   
3.219589316   -0.922655098   -0.81532898   
3.117510163   -0.768734622   -0.816178388   
2.917590752   -1.079481218   -0.819434517   
2.887939791   -0.947384334   -0.831304838   
2.806299053   -0.805011394   -0.829377302   
2.730266379   -0.672740296   -0.830475714   
35.57897091   -8.81464713   0.317960663   
19.8009361   -6.469947249   -0.186881203   
24.60693598   -7.063725893   -0.467422602   
17.68158889   -4.392057896   -0.508263809   
15.13213981   -5.569576675   -0.579989304   
12.86667403   -4.210642998   -0.613105205   
11.4567394   -3.294427071   -0.65542602   
10.44626323   -2.598501182   -0.69479489   
9.088608232   -3.350582479   -0.702667484   
8.365450021   -2.741974161   -0.722994618   
7.737447768   -2.229757021   -0.737211864   
7.093692899   -1.76718106   -0.741413342   
6.518878538   -2.408274318   -0.760603141   
6.040761753   -1.983856288   -0.756254142   
5.696820436   -1.643525166   -0.762593333   
5.375396772   -1.340912669   -0.767276948   
4.956023429   -1.833758951   -0.775525999   
4.731909233   -1.557033854   -0.778745621   
4.552727179   -1.316038335   -0.786851276   
4.367637834   -1.090009387   -0.793510127   
4.005363336   -1.485188773   -0.788425354   
3.89406777   -1.28405461   -0.796722941   
3.78488318   -1.096801328   -0.805090573   
3.667448585   -0.915062703   -0.811440914   
3.385273419   -1.259697034   -0.806528617   
3.33348839   -1.101980006   -0.818242283   
3.192480269   -0.925494412   -0.809179094   
3.116077187   -0.778530319   -0.816424733   
2.911547645   -1.0874122   -0.818670386   
2.857551925   -0.947135803   -0.823390174   
2.785339605   -0.808255627   -0.823911913   
2.723537165   -0.679951933   -0.82905945   
28.42283339   -9.383755658   -0.268525127   
24.57746729   -7.136955173   -0.467276571   
17.79695964   -4.478729291   -0.511972768   
15.14027395   -5.625373009   -0.580959847   
12.91913912   -4.271736883   -0.616226878   
11.45328983   -3.331512508   -0.655810291   
10.4401778   -2.631025409   -0.694923696   
9.085763585   -3.381233263   -0.703246304   
8.375919931   -2.773892658   -0.724631659   
7.731526665   -2.253763347   -0.737303059   
7.097884552   -1.79137049   -0.74242233   
6.513322354   -2.42895741   -0.760820758   
6.045956614   -2.006132433   -0.757671422   
5.692703302   -1.661272903   -0.762720887   
5.397187182   -1.363950607   -0.77098096   
4.953154647   -1.849993695   -0.775961648   
4.714922111   -1.567491832   -0.776737779   
4.557189796   -1.332491381   -0.788325359   
4.376685605   -1.10654214   -0.79576688   
3.998024967   -1.496435881   -0.787880865   
3.886384996   -1.294754235   -0.795959944   
3.79278274   -1.111715101   -0.807492639   
3.654196964   -0.923674298   -0.809132128   
3.39327014   -1.274538227   -0.809361567   
3.32639681   -1.110967692   -0.817334384   
3.1830992   -0.933370698   -0.807523336   
3.153135118   -0.798074451   -0.826771682   
2.891005674   -1.089858366   -0.813830727   
2.857376798   -0.95681706   -0.824181608   
2.799460941   -0.821673557   -0.828830788   
2.715859645   -0.686893471   -0.827360001   
28.26300709   -9.427248003   -0.267287139   
24.56217155   -7.214296614   -0.467404334   
17.79282111   -4.535777522   -0.512251657   
15.12855868   -5.673901886   -0.581175556   
12.91544844   -4.314517332   -0.616679278   
11.44205773   -3.366353153   -0.655755396   
10.43882491   -2.664770684   -0.695374545   
9.074414432   -3.408741237   -0.703173945   
8.368315232   -2.799892624   -0.724713496   
7.740813725   -2.282260204   -0.738852958   
7.097174727   -1.814370196   -0.742926824   
6.512351798   -2.451379781   -0.761582326   
6.041656595   -2.025303138   -0.757907636   
5.687579955   -1.678730045   -0.762720887   
5.396815558   -1.381485113   -0.771529738   
4.945604154   -1.86448299   -0.775671254   
4.721329944   -1.585724481   -0.778591186   
4.550242085   -1.345627102   -0.787834035   
4.366591622   -1.118254168   -0.794551718   
4.00169473   -1.511822543   -0.789514332   
3.882394261   -1.306671418   -0.795959943   
3.783717997   -1.12167505   -0.806291605   
3.647557314   -0.933910814   -0.808292538   
3.393906741   -1.28667254   -0.810451198   
3.316513223   -1.11898831   -0.815745563   
3.197919648   -0.948380737   -0.812017467   
3.140344865   -0.805096875   -0.824061758   
2.913858595   -1.108695452   -0.82121759   
2.85990997   -0.96743335   -0.825764584   
2.7794058   -0.825057192   -0.823638628   
2.705378203   -0.693080329   -0.824810772   
52.56471402   -13.53752703   0.470851703   
27.9297698   -9.411414621   -0.264407489   
24.54088046   -7.289902765   -0.467422602   
17.77107912   -4.588344785   -0.512028557   
15.12416514   -5.725242214   -0.581678798   
12.91256304   -4.357634872   -0.617176917   
11.46038611   -3.409983966   -0.657402331   
10.42287167   -2.694785771   -0.694859264   
9.055520174   -3.433382717   -0.702522764   
8.353076753   -2.823319304   -0.724140517   
7.743318649   -2.308843434   -0.739764671   
7.079054077   -1.832893586   -0.741615163   
6.468559717   -2.457578977   -0.75733925   
6.036355116   -2.044147657   -0.758025772   
5.683352975   -1.696455085   -0.762848499   
5.396387114   -1.3990301   -0.772078459   
4.949108054   -1.883165726   -0.777123283   
4.715506797   -1.599884429   -0.778436748   
4.543257084   -1.358732821   -0.787342656   
4.394598748   -1.139804532   -0.800280382   
4.020008987   -1.532851628   -0.794051793   
3.8755791   -1.31762834   -0.795387739   
3.792459444   -1.136935671   -0.808893883   
3.604925187   -0.934789505   -0.799477129   
3.379916694   -1.293242301   -0.808054078   
3.316752046   -1.130414701   -0.816653462   
3.180104293   -0.953721622   -0.808232988   
3.105965704   -0.806446294   -0.815685638   
2.908638049   -1.116936512   -0.82070815   
2.855103044   -0.975579108   -0.825236907   
2.775018685   -0.833027251   -0.823092053   
2.703239148   -0.70137705   -0.824810772   
52.44552863   -13.67854008   0.470157785   
31.35297067   -11.96369946   0.022842203   
27.6518031   -9.41231391   -0.262048129   
19.60705982   -5.889826106   -0.37379205   
17.80817448   -4.656246052   -0.513506514   
15.09719372   -5.768048611   -0.581319322   
12.90669683   -4.399808245   -0.617538836   
11.43839735   -3.441675426   -0.656743581   
10.40103945   -2.723211434   -0.693957564   
9.037492216   -3.458296971   -0.701944003   
8.336830617   -2.846356626   -0.723485701   
7.758127796   -2.339200753   -0.741861622   
7.094569926   -1.860154415   -0.74383496   
6.463773753   -2.47848051   -0.757665644   
6.018780699   -2.058800516   -0.756608434   
5.680970311   -1.714743198   -0.763231162   
5.389195135   -1.414824847   -0.771666889   
4.924834634   -1.891246602   -0.774219226   
4.714315057   -1.61562507   -0.779054552   
4.535290179   -1.37152268   -0.786687482   
4.341550627   -1.140272724   -0.791253378   
4.025383177   -1.549062655   -0.796048253   
3.865019695   -1.327280485   -0.794052537   
3.77770201   -1.145154643   -0.806491816   
3.631355913   -0.953542723   -0.805983751   
3.378664494   -1.304660316   -0.808707822   
3.31326831   -1.140584953   -0.816653461   
3.198548948   -0.969958692   -0.813673223   
3.093166181   -0.813260549   -0.812975711   
2.907902716   -1.126903138   -0.821472283   
2.851184802   -0.984019157   -0.824973096   
2.786256917   -0.845727924   -0.827191124   
2.698291879   -0.708936028   -0.823961047   
31.36371165   -12.07816081   0.022876919   
27.21523025   -9.356977384   -0.258181695   
19.23205745   -5.841564602   -0.366982875   
17.75805197   -4.70139301   -0.512474698   
14.99830418   -5.783060191   -0.578191986   
12.90541723   -4.443612859   -0.618126956   
11.41918705   -3.474136186   -0.656249459   
10.34633448   -2.742834086   -0.690865812   
9.02218736   -3.484210702   -0.701582203   
8.325232115   -2.870945548   -0.723240188   
7.758535422   -2.365314629   -0.742591004   
7.073444106   -1.877827   -0.742220568   
6.4617023   -2.50045186   -0.758318435   
6.00305011   -2.074013627   -0.755427366   
5.677580002   -1.732743108   -0.763486328   
5.386743793   -1.43186092   -0.771941249   
4.920854323   -1.907061921   -0.77450962   
4.711203461   -1.63072708   -0.779363424   
4.535777978   -1.386872601   -0.78750645   
4.338983265   -1.153840216   -0.791426945   
3.980277345   -1.545741141   -0.788062363   
3.860929422   -1.33913201   -0.794052537   
3.716092359   -1.138938721   -0.794081175   
3.617074665   -0.961664491   -0.803465038   
3.374646016   -1.315019773   -0.808707823   
3.277557405   -1.139550571   -0.808709355   
3.19370023   -0.979197558   -0.813200142   
3.144040761   -0.836957512   -0.82701803   
2.891823322   -1.130888454   -0.817906196   
2.819916944   -0.982919928   -0.816794624   
2.760659108   -0.847216588   -0.820359359   
2.694250481   -0.716717851   -0.823394563   
31.32650891   -12.17432642   0.022876919   
27.18356024   -9.439444393   -0.258154783   
18.93400269   -5.814540403   -0.361634133   
17.81402899   -4.774743816   -0.514510436   
14.83706663   -5.773239082   -0.572656324   
12.90115873   -4.486466168   -0.618579355   
11.41229193   -3.510327654   -0.656469101   
10.34558118   -2.776632517   -0.691381094   
9.022607045   -3.516219873   -0.702450404   
8.317326617   -2.896801411   -0.723322026   
7.757903934   -2.391159503   -0.743229191   
7.086865543   -1.904683709   -0.744238543   
6.459556339   -2.522433729   -0.758971167   
6.003221931   -2.094710832   -0.756254142   
5.660864386   -1.746644416   -0.761955503   
5.380412825   -1.447865717   -0.77166689   
4.91866584   -1.923591329   -0.775090408   
4.708043592   -1.645825253   -0.779672354   
4.543754403   -1.404569091   -0.789635708   
4.323060558   -1.163818443   -0.789170195   
3.999321711   -1.567274191   -0.792781321   
3.855876293   -1.350646274   -0.793861801   
3.758438106   -1.164543025   -0.803889538   
3.605610235   -0.970469924   -0.801576047   
3.395118942   -1.33500981   -0.814591695   
3.274964855   -1.149923302   -0.80893633   
3.216666971   -0.99704565   -0.819823054   
3.142394005   -0.846851582   -0.827264376   
2.869450235   -1.132301132   -0.812557094   
2.807789426   -0.988363944   -0.8141564   
2.745184658   -0.851691663   -0.816533576   
2.691113042   -0.724730934   -0.823111324   
27.32679833   -10.7165451   0.019979951   
27.14315018   -9.518826734   -0.258047137   
18.68690409   -5.801454567   -0.357252893   
17.87357984   -4.849528837   -0.516657752   
14.74300627   -5.788780974   -0.569708754   
12.92503591   -4.539266283   -0.620389011   
11.416724   -3.550067206   -0.657347435   
10.29464118   -2.796847413   -0.688547071   
9.019202855   -3.546804527   -0.703029225   
8.302759125   -2.920320758   -0.722830885   
7.727713225   -2.4078395   -0.741041104   
7.081948701   -1.926678118   -0.744339453   
6.463810366   -2.546977196   -0.760385584   
6.002386567   -2.115098788   -0.756962782   
5.649798244   -1.762231519   -0.76119012   
5.373078035   -1.463584771   -0.771255319   
4.916422866   -1.940125303   -0.775671255   
4.70204023   -1.659932661   -0.779517917   
4.51588402   -1.411146625   -0.785540929   
4.347974576   -1.184843677   -0.79437809   
3.999981483   -1.58170633   -0.793870298   
3.858192559   -1.36476107   -0.795197004   
3.756717554   -1.176653963   -0.804289902   
3.601672583   -0.981270263   -0.801366121   
3.333855392   -1.32274399   -0.800862658   
3.286107942   -1.165172746   -0.81256792   
3.242335353   -1.015915409   -0.827155615   
3.146326135   -0.858273735   -0.828988915   
2.875845524   -1.145033953   -0.815358991   
2.815650297   -1.000850228   -0.817322243   
2.749901508   -0.86241263   -0.818719753   
2.693503216   -0.734244912   -0.824527529   
27.36260009   -10.82756045   0.020030323   
27.12041685   -9.604392211   -0.258109931   
18.57362261   -5.828820678   -0.355427382   
11.39717052   -4.515457817   -0.440950026   
12.94400204   -4.590585333   -0.621972468   
11.38387066   -3.578190233   -0.656084771   
10.2994839   -2.83212215   -0.68944883   
9.025892711   -3.58144758   -0.704403886   
8.292821142   -2.945445843   -0.722749047   
7.720289494   -2.43153634   -0.741041104   
7.049146825   -1.941000941   -0.741514252   
6.466126876   -2.570835727   -0.761582326   
5.999611323   -2.134835609   -0.757435209   
5.644364887   -1.779556511   -0.761190119   
5.365697864   -1.479272485   -0.770843808   
4.914123973   -1.956663481   -0.776252042   
4.700648243   -1.675677518   -0.78013572   
4.506830007   -1.423508964   -0.784721962   
4.339572369   -1.196868378   -0.793510128   
4.000590093   -1.596157101   -0.794959274   
3.863231918   -1.379893421   -0.797104413   
3.734408731   -1.18225959   -0.800286496   
3.621266269   -0.998553092   -0.806403547   
3.343372684   -1.338406555   -0.804131496   
3.266013531   -1.169339879   -0.80848238   
3.194741875   -1.011776995   -0.815802005   
3.124059527   -0.862506024   -0.823815413   
2.875908493   -1.155293446   -0.816377874   
2.801672117   -1.005573583   -0.8141564   
2.781170661   -0.881599893   -0.828830787   
2.684766508   -0.740719533   -0.822544841   
19.76848536   -6.262128598   0.374630245   
11.19471264   -4.469592668   0.008204897   
18.4431935   -5.850104677   -0.35327327   
11.37769584   -4.548176896   -0.440734347   
12.94302435   -4.634990243   -0.622605827   
11.37474226   -3.613703226   -0.656194563   
10.30035975   -2.866382548   -0.690092918   
9.013936682   -3.608751198   -0.704331526   
8.272487528   -2.96683657   -0.721766821   
7.715640388   -2.456116703   -0.741314571   
7.063284722   -1.968226401   -0.743633138   
6.47020279   -2.595472499   -0.762996684   
5.995837469   -2.154239361   -0.757789559   
5.649274032   -1.800177347   -0.762593332   
5.359225986   -1.495194818   -0.770569389   
4.904425863   -1.970255443   -0.775671255   
4.697344501   -1.690760276   -0.780444592   
4.500561575   -1.436728956   -0.78439443   
4.33113717   -1.208852563   -0.792642106   
3.975604805   -1.600344466   -0.7909663   
3.889453213   -1.402729184   -0.803398843   
3.736362939   -1.195502419   -0.801487529   
3.63137008   -1.013337421   -0.809341997   
3.35191994   -1.353774466   -0.807182361   
3.26149487   -1.17902329   -0.808255406   
3.199025774   -1.02394313   -0.817694273   
3.111130949   -0.869217751   -0.821105488   
2.870558005   -1.163384675   -0.815868431   
2.822152425   -1.022708755   -0.821015765   
2.786697623   -0.892769609   -0.831290197   
2.684328788   -0.749468551   -0.823111323   
19.74727602   -6.322138344   0.374594124   
11.16425096   -4.497190694   0.008192645   
14.28408573   -5.760879641   -0.554000309   
12.95129006   -4.682829328   -0.623691586   
11.38356717   -3.654993531   -0.657347436   
10.29055675   -2.897699573   -0.690028485   
9.024092898   -3.644979826   -0.705995628   
8.254913263   -2.989148311   -0.721030168   
7.700485039   -2.477336507   -0.740585248   
7.071576518   -1.993936967   -0.745146678   
6.446544774   -2.608971112   -0.761147152   
6.016270621   -2.182444325   -0.761214739   
5.657885722   -1.822061036   -0.76450682   
5.362239746   -1.513782684   -0.771666888   
4.906610403   -1.988637514   -0.776978027   
4.693063602   -1.705501017   -0.780599085   
4.493315999   -1.449621071   -0.78390305   
4.315087267   -1.218654994   -0.790385354   
3.967032106   -1.611053818   -0.790240317   
3.891587907   -1.417006307   -0.804734044   
3.7280164   -1.205452629   -0.800486649   
3.660235902   -1.033506689   -0.816478341   
3.34052023   -1.361105564   -0.805438985   
3.26152176   -1.190359411   -0.809163304   
3.151494993   -1.019399281   -0.806340719   
3.079538136   -0.87058516   -0.813468463   
2.858919539   -1.168892315   -0.813575977   
2.812660508   -1.029042354   -0.819168976   
2.750999255   -0.890648437   -0.821452448   
2.701398255   -0.763175904   -0.829059451   
19.72588302   -6.38207699   0.374558003   
39.92868624   -11.3350991   0.360047771   
11.14484272   -4.529162316   0.008188561   
14.2024732   -5.778688116   -0.55152004   
12.95281556   -4.728364818   -0.624460724   
11.38559659   -3.694214792   -0.658116037   
10.27298075   -2.92679611   -0.68944883   
9.015638513   -3.673777234   -0.706212649   
8.267233244   -3.022330746   -0.722912781   
7.696636361   -2.502181178   -0.74094991   
7.074993529   -2.018352346   -0.746155666   
6.430227534   -2.625354646   -0.760167967   
5.978776527   -2.189622448   -0.757317132   
5.656984889   -1.840945251   -0.76514465   
5.363285037   -1.531858813   -0.772490028   
4.915139124   -2.009672521   -0.779301296   
4.697084793   -1.723294116   -0.782143563   
4.495412989   -1.465539979   -0.785049547   
4.311328227   -1.231887811   -0.790385355   
3.964800724   -1.624335389   -0.790784806   
3.87155908   -1.42318113   -0.801491433   
3.71033089   -1.212319916   -0.797484065   
3.658928083   -1.045268494   -0.816898135   
3.335426058   -1.3709767   -0.80522107   
3.250543587   -1.197666369   -0.807347507   
3.154817576   -1.031176205   -0.807996419   
3.092693517   -0.884559735   -0.817656523   
2.883926794   -1.189456489   -0.82172703   
2.79139366   -1.03098273   -0.813892534   
2.787566849   -0.911945337   -0.833203087   
2.704576854   -0.773041509   -0.830758957   
19.71761583   -6.446293309   0.374774756   
39.75916537   -11.41890133   0.358833385   
11.11979195   -4.558780806   0.008180392   
14.06171795   -5.771763583   -0.546739211   
12.86419728   -4.740791602   -0.620886651   
11.37231134   -3.728505987   -0.658006245   
10.26395389   -2.958299395   -0.68944883   
9.006170721   -3.702177972   -0.706357369   
8.234546841   -3.039053245   -0.720866493   
7.67851633   -2.522363534   -0.739947002   
7.0706795   -2.040600407   -0.746357428   
6.417547002   -2.643177087   -0.759623956   
6.020462562   -2.225860932   -0.763458795   
5.654137031   -1.859221456   -0.765527371   
5.365221452   -1.550230723   -0.773450318   
4.912609375   -2.026251538   -0.779882086   
4.691775592   -1.737696426   -0.782143562   
4.489958678   -1.479016128   -0.784885754   
4.318881577   -1.248390566   -0.792468536   
3.958889444   -1.636115925   -0.790603307   
3.851529407   -1.429246407   -0.798248823   
3.712176276   -1.225540296   -0.798685098   
3.64443275   -1.053231602   -0.814379424   
3.321287322   -1.37709136   -0.80282395   
3.224033733   -1.199145542   -0.801673145   
3.147948592   -1.039631312   -0.807050313   
3.091827147   -0.894582545   -0.818149216   
2.878478293   -1.197555819   -0.821217589   
2.823465664   -1.052683469   -0.824181607   
2.768315983   -0.915058954   -0.828284214   
2.716011997   -0.78533131   -0.835007635   
39.7105031   -11.53692084   0.358711941   
11.11222237   -4.595549528   0.008185158   
13.96730782   -5.783145843   -0.5437557   
12.92636768   -4.808798056   -0.624596443   
11.347549   -3.758982451   -0.657237644   
10.25195483   -2.98893689   -0.689255592   
8.99753393   -3.730937344   -0.70657439   
8.244797129   -3.071608895   -0.722585372   
