X     Y     Z
5.036446565   -11.71936856   0.818618442   
5.02849174   -11.71776809   0.351717443   
5.270294301   -11.14244129   0.222682821   
6.199667104   -11.96353164   0.116884543   
5.030506076   -11.72923972   -0.114495236   
4.486882298   -11.70397111   3.831240807   
5.001871702   -11.70066678   3.73936485   
5.496391948   -11.6213907   3.639955757   
6.047556608   -11.63805423   3.578656421   
4.474660789   -11.66052091   3.295233432   
4.444870831   -11.58591333   0.915418015   
4.993035048   -11.71732154   0.817401554   
5.259267137   -11.19576362   0.6764051   
4.988213366   -11.72302232   0.351414145   
5.239907811   -11.16670408   0.222845392   
6.194491769   -12.04385356   0.117483063   
4.99136705   -11.73725677   -0.114423472   
4.446879133   -11.70695275   3.82773319   
4.963329897   -11.70977405   3.737391222   
5.452129558   -11.61990596   3.634234664   
6.003421431   -11.64026196   3.573654877   
4.442989612   -11.6850394   3.298294726   
4.426668596   -11.64517399   0.919022904   
4.952402612   -11.72155385   0.816633011   
5.230799402   -11.22451672   0.67716953   
4.951058352   -11.73550765   0.351331443   
5.19802919   -11.16641103   0.222520264   
4.956110982   -11.75435696   -0.114441413   
4.412962803   -11.72591064   3.829486997   
4.91846051   -11.7037182   3.730624664   
5.407927833   -11.61826032   3.628513574   
5.956252292   -11.63629777   3.566810834   
4.410187384   -11.70675823   3.300590696   
4.887885947   -11.66857844   0.811893726   
5.196757094   -11.24141882   0.677224128   
4.923903163   -11.7718533   0.351965607   
5.161231395   -11.17685954   0.222411873   
4.945866048   -11.83132059   -0.115042459   
4.374628579   -11.73312244   3.82744089   
4.873675092   -11.6974967   3.723858105   
5.364594047   -11.61819902   3.623337504   
5.905231408   -11.62441263   3.557597625   
4.371883898   -11.71389284   3.298804942   
5.156001501   -11.24369476   0.676405101   
4.921843024   -11.86908474   0.35441959   
5.115258413   -11.16718967   0.221906113   
4.965822145   -11.98223342   -0.116361182   
4.326351812   -11.71329598   3.816625509   
4.829340334   -11.69199839   3.717373595   
5.314901252   -11.60398546   3.61380243   
5.861288829   -11.62610711   3.552596316   
4.333243281   -11.71999495   3.296764078   
5.11528083   -11.24582701   0.675586074   
4.899088219   -11.9174121   0.355412186   
5.077664998   -11.17554743   0.221761601   
4.293644879   -11.6403688   0.008445176   
4.917257755   -11.96873888   -0.116083082   
4.28283769   -11.7058571   3.809902579   
4.789447831   -11.6969927   3.714272246   
5.280867877   -11.62374112   3.614892005   
5.805736836   -11.60434719   3.540487515   
4.292943274   -11.72143106   3.293447676   
4.27760167   -11.68269829   0.917772219   
5.094305617   -11.29150246   0.677387922   
4.276750187   -11.69174841   0.462808591   
4.862126109   -11.93146095   0.355384619   
5.04458734   -11.19380752   0.221815796   
4.277131044   -11.70608621   0.008483294   
4.904276445   -12.04211297   -0.116648246   
4.252118046   -11.73332779   3.814579401   
4.752096426   -11.70807556   3.713144526   
5.232137038   -11.61093957   3.605901954   
5.75723787   -11.5961812   3.532590614   
4.256302978   -11.73272849   3.29293746   
4.244119743   -11.70232989   0.918287204   
5.04862843   -11.28246975   0.67591366   
4.245626187   -11.71796782   0.463328671   
4.832611297   -11.96393132   0.355908513   
5.013077625   -11.21562134   0.221942233   
4.23881479   -11.71257033   0.00847853   
4.209962401   -11.72921596   3.809025678   
4.71615411   -11.72259958   3.713144526   
5.201594279   -11.63835665   3.609443425   
5.720355265   -11.61119359   3.531800736   
4.211786754   -11.72207266   3.286304656   
4.214266073   -11.73219003   0.91961144   
5.003054344   -11.27326381   0.674439458   
4.216069079   -11.7488091   0.46403451   
4.813717614   -12.02324607   0.357232005   
4.982696684   -11.24008861   0.222122865   
4.210284194   -11.74622977   0.008493505   
4.168512455   -11.72675812   3.804056557   
4.670217317   -11.71206039   3.705250249   
5.179900735   -11.68592612   3.61925101   
5.674536856   -11.60788711   3.525483119   
4.167051649   -11.71034333   3.279416743   
4.192291181   -11.78452673   0.922701344   
4.974880619   -11.3031827   0.675313084   
4.188370207   -11.7852288   0.464963269   
5.059651404   -11.50885802   0.227126362   
4.182925184   -11.78359366   0.008511202   
4.111557649   -11.6799557   3.784764441   
4.627563096   -11.70937978   3.699893223   
5.143249847   -11.70000188   3.618706224   
5.632582379   -11.61222174   3.521534669   
4.125963372   -11.70848104   3.275335016   
5.126315324   -11.74484508   0.700757413   
5.040302274   -11.5609873   0.227848889   
4.069723796   -11.67535655   3.77921048   
4.588818483   -11.71637546   3.697637784   
5.093488386   -11.68397329   3.608898637   
5.5843786   -11.60336923   3.513637768   
4.080784762   -11.69460947   3.267936888   
4.158993926   -11.92208394   0.931456016   
5.084309203   -11.74677144   0.699938385   
4.151495181   -11.91262045   0.468975407   
5.012348234   -11.59383361   0.228192093   
4.143746314   -11.90442414   0.008579951   
4.032949152   -11.68507523   3.778333576   
4.536188387   -11.68746561   3.684104667   
5.058764049   -11.7021943   3.609715935   
5.53378883   -11.58910585   3.504161344   
4.042361002   -11.69976308   3.265896025   
5.031887999   -11.71291725   1.163302616   
4.103187414   -11.87917163   0.927115486   
5.040763944   -11.74488153   0.698900967   
5.270624816   -11.15491099   0.557648947   
4.106127556   -11.89979545   0.46797238   
4.985028465   -11.62845506   0.228571417   
5.277200768   -11.17185708   0.107178135   
4.094822792   -11.88115456   0.008554085   
3.996462483   -11.69558387   3.777748976   
4.503409992   -11.70938691   3.686642156   
5.0129824   -11.6946664   3.602632758   
5.495316564   -11.59992628   3.502318609   
4.003943885   -11.7047902   3.26385516   
4.993197739   -11.72188655   1.162666515   
4.080599742   -11.9322804   0.930278943   
4.434079996   -11.56887833   0.795114065   
4.993759779   -11.7345653   0.697372108   
5.277929166   -11.25967281   0.562074055   
4.083491697   -11.95299942   0.469569814   
4.971623368   -11.6961436   0.229601027   
5.253933612   -11.21153716   0.107403664   
4.070624217   -11.9296255   0.008579951   
3.95688491   -11.69691849   3.77424136   
4.472248085   -11.73570018   3.690589415   
4.977832846   -11.7117617   3.603177545   
5.452316355   -11.60101475   3.497580515   
3.968325295   -11.71793532   3.264110269   
4.940938672   -11.69861914   1.158849672   
4.052607578   -11.97024806   0.932265268   
4.943373003   -11.71579128   0.695351867   
5.280848648   -11.35643172   0.56609272   
4.974940252   -14.70976746   0.577266228   
6.554963928   -17.28798326   0.509984792   
4.925620799   -11.68738596   0.229131373   
5.198013724   -11.18135805   0.106961286   
4.957618514   -14.67627321   0.010544389   
3.910959405   -11.67907791   3.76459542   
4.423344024   -11.71525703   3.679875599   
4.939262521   -11.72077206   3.601270436   
5.407323068   -11.59757736   3.491526114   
3.92498047   -11.70805241   3.257987444   
4.88156098   -11.65769002   1.153306321   
4.91651831   -14.67001553   1.14134811   
4.915883552   -11.75116818   0.69655308   
5.235521864   -11.3499023   0.564963868   
4.934546457   -14.73917516   0.577823472   
6.502597477   -17.30988504   0.510039926   
4.888970506   -11.7005975   0.229095252   
5.158660233   -11.1863565   0.106857194   
4.765423486   -14.25136387   0.010228554   
3.887747506   -11.7291469   3.77687207   
4.3772967   -11.70181416   3.671417461   
4.896974821   -11.72077811   3.596639156   
5.354707166   -11.57733651   3.480470405   
3.897264415   -11.74481691   3.264875593   
4.844245176   -11.668932   1.152942733   
4.915135037   -14.81660365   1.15157424   
4.907732292   -11.83352438   0.700539021   
5.133339989   -11.21874991   0.557648947   
4.909736621   -14.81590266   0.580238175   
4.849224178   -11.70630398   0.22891462   
5.11391764   -11.17939716   0.106640337   
4.732989859   -14.30009346   0.010253058   
3.838628283   -11.7010378   3.764010818   
4.343709126   -11.72148604   3.67339109   
4.853260472   -11.71707849   3.590918062   
5.31674933   -11.58844893   3.478890883   
3.864833828   -11.76774203   3.267936888   
4.809180582   -11.6855807   1.153124527   
4.875255231   -14.84866825   1.152898417   
4.312865446   -11.67952617   0.799020792   
5.055959003   -11.13984013   0.552952995   
4.87640472   -14.86792752   0.581687045   
4.248615546   -11.5240989   0.338785857   
4.809868447   -11.71280235   0.228752049   
5.072158252   -11.17864276   0.106484203   
4.693142332   -14.32690037   0.010261907   
4.249028879   -11.53266141   -0.110260989   
3.800939983   -11.70730232   3.762257011   
4.301115515   -11.71674322   3.667752251   
4.813269789   -11.72212246   3.587921379   
5.277575174   -11.59680362   3.476521955   
3.797329907   -11.68299004   3.241150324   
4.755250935   -11.65602042   1.148762421   
4.831217852   -14.86829828   1.153266297   
4.281126686   -11.70394966   0.799789275   
5.019708192   -11.15074487   0.552727213   
4.834161174   -14.89327372   0.582095694   
4.273247851   -11.70139824   0.343611092   
4.767502975   -11.71176038   0.22844498   
5.0374285   -11.19323902   0.10647553   
4.63683101   -14.30318104   0.01023468   
4.268478619   -11.69593987   -0.111696329   
3.745113447   -11.65699426   3.742380054   
4.263509147   -11.72537599   3.666342484   
4.770392368   -11.71990164   3.582745074   
5.224110773   -11.57337167   3.464676367   
3.754363495   -11.67249338   3.235027733   
4.783137798   -14.87545464   1.15267776   
4.243499472   -11.71233748   0.799469079   
4.985474971   -11.16609216   0.552727213   
4.778667237   -14.87758943   0.58090688   
4.236988534   -11.71351394   0.343583495   
4.724440903   -11.70871509   0.228101777   
5.008363201   -11.22051187   0.106588295   
3.55924389   -11.09508062   0.007931264   
4.235975527   -11.71838485   -0.111786034   
3.728744173   -11.72949212   3.761964709   
4.213212212   -11.69868309   3.653937089   
4.729013683   -11.72109719   3.578658815   
5.199223304   -11.61311807   3.471783624   
3.723520135   -11.69962047   3.239364568   
4.691792499   -11.70531459   1.150761798   
4.735663761   -14.88435661   1.152236328   
4.21125432   -11.73563351   0.800173546   
4.95564354   -11.19138278   0.553223898   
3.546799769   -11.1598496   0.435317946   
4.209797704   -11.75092432   0.34430039   
4.68292812   -11.70922927   0.227830829   
4.983630068   -11.25776906   0.106796471   
3.514296469   -11.07163578   0.00790676   
4.214496918   -11.77180745   -0.11217178   
3.674664641   -11.68340378   3.743549496   
4.175045044   -11.70522796   3.651963695   
4.690530862   -11.72929682   3.576751706   
5.188235242   -11.68456299   3.488367306   
3.675702022   -11.67317621   3.228905146   
4.686083963   -14.88644878   1.151279912   
4.181913585   -11.76730508   0.80145445   
4.933335736   -11.2339734   0.554578533   
3.497557307   -11.12301359   0.433460486   
4.178071681   -11.77603171   0.344658852   
4.633719238   -11.69007999   0.227180557   
4.97559825   -11.33343582   0.107368974   
3.471324293   -11.05374363   0.007886339   
4.186047423   -11.80635912   -0.112378117   
3.626869753   -11.656271   3.73127261   
4.137516345   -11.71345925   3.650553929   
4.649914703   -11.7320036   3.573209999   
5.153140755   -11.7021914   3.488893736   
3.632682491   -11.66131874   3.222527448   
4.13197931   -11.69778247   3.138765628   
5.11174465   -11.72115633   1.045691692   
4.633867201   -14.87980759   1.149661408   
4.155068608   -11.80643761   0.803247715   
4.910015224   -11.27470087   0.555842807   
3.450355416   -11.09170643   0.431825888   
4.161804714   -11.84538043   0.346313209   
4.595273567   -11.69772646   0.227054121   
5.096077952   -11.70529891   0.110743223   
3.443329277   -11.08344022   0.007899953   
4.161400698   -11.85216834   -0.112692092   
3.598124906   -11.69019279   3.738580139   
4.080020057   -11.66451427   3.631381974   
4.59560714   -11.69964504   3.559043643   
5.106018121   -11.69230661   3.481260048   
3.599736316   -11.68164909   3.225078526   
4.091270136   -11.69667704   3.135086352   
5.074969191   -11.73495353   1.045528614   
4.58349717   -14.87870477   1.148484335   
4.142143928   -11.88603683   0.807794894   
5.064318548   -11.72717662   0.577381183   
3.412195494   -11.08886779   0.431305808   
4.142195583   -11.90624279   0.347719402   
4.553923043   -11.69779348   0.226783173   
5.058953523   -11.71812398   0.110717205   
3.416065916   -11.11593814   0.007915609   
4.131258414   -11.88282501   -0.112862539   
3.569205938   -11.72404911   3.745887907   
4.051122527   -11.69692185   3.637584672   
4.554456485   -11.70024005   3.554957151   
5.05900475   -11.68224282   3.47362636   
3.563034972   -11.68986336   3.224313203   
4.053145393   -11.7027617   3.1333695   
5.027158851   -11.72298852   1.043083512   
4.530270821   -14.86789299   1.146571503   
4.101426786   -11.8864252   0.806962277   
5.025956852   -11.73714877   0.577110221   
3.374376687   -11.08685638   0.430822861   
4.092300133   -11.88014568   0.34658894   
4.513695029   -11.7005159   0.226566406   
5.018650104   -11.72347736   0.110621786   
3.388053855   -11.14645854   0.007929903   
4.075905735   -11.84060417   -0.112342227   
3.534598695   -11.73952274   3.747349414   
4.017085138   -11.7147414   3.639276254   
4.515768714   -11.70697608   3.552777765   
5.025043433   -11.70214091   3.474942431   
3.518223979   -11.67111474   3.21614975   
4.020366927   -11.72431242   3.135822351   
4.986489227   -11.72734979   1.042105518   
4.48060686   -14.86835403   1.145541535   
4.073328639   -11.9235056   0.808627452   
4.98602024   -11.74331802   0.576658716   
3.341499038   -11.1009844   0.430971456   
4.073902136   -11.94562649   0.348132998   
4.473136123   -11.7021677   0.226331593   
4.978752075   -11.72961405   0.110535046   
3.356144061   -11.1644614   0.007935348   
4.079236436   -11.96947289   -0.113445651   
3.482737723   -11.69715064   3.730395706   
3.967246759   -11.68612784   3.626589047   
4.477426657   -11.71448395   3.550870657   
4.989118085   -11.71750266   3.474942432   
3.479362403   -11.67166121   3.213343564   
3.970354571   -11.69528157   3.124785001   
4.947389421   -11.73524573   1.041453444   
4.430128385   -14.86578183   1.14429091   
4.969338979   -14.69352229   0.995445634   
4.945705093   -11.74843094   0.57616203   
3.323676498   -11.16577676   0.43308897   
4.971240323   -14.72454476   0.428672881   
4.429068201   -11.69433081   0.225916134   
4.934597397   -11.72547906   0.110352887   
3.323870848   -11.18141563   0.007940113   
4.638991737   -13.74994378   -0.130185295   
3.460069111   -11.75273268   3.744718701   
3.936265814   -11.71279528   3.631100164   
4.437036118   -11.7164675   3.547329185   
4.938888152   -11.69898067   3.464939581   
3.452559474   -11.71288702   3.221762124   
3.927352165   -11.68627153   3.119143778   
4.956168887   -14.79721799   1.570532417   
4.864086879   -11.63726127   1.031428539   
4.380835257   -14.86686737   1.143334494   
4.927721502   -14.71910882   0.996150161   
4.953886266   -11.86956822   0.581354727   
3.30774502   -11.23823325   0.435503703   
4.928260848   -14.7463633   0.42886588   
4.385793276   -11.68820518   0.22553681   
4.884354055   -11.7064175   0.110031946   
3.295473052   -11.21170739   0.007954408   
4.580314485   -13.71479082   -0.129718814   
3.395130697   -11.66412523   3.713149698   
3.897890272   -11.71753332   3.628844488   
4.394309558   -11.71200739   3.541880367   
4.89999317   -11.70695873   3.462833631   
3.402270315   -11.67422484   3.208241407   
3.91045321   -11.75529815   3.134350592   
4.910122154   -14.81046569   1.570332146   
4.328787837   -14.85821533   1.141642437   
4.903886209   -14.79857357   1.000505115   
4.910954853   -11.86901892   0.580587079   
3.287770361   -11.29822276   0.43743546   
4.901204847   -14.81645818   0.430465103   
4.344687984   -11.68754828   0.225265862   
4.845358416   -11.71395523   0.109962551   
4.158507941   -14.31000701   0.010143469   
4.680702457   -14.15982089   -0.133791584   
3.354569765   -11.65794419   3.707888278   
3.846920696   -11.68387103   3.614747511   
4.354334349   -11.71461146   3.538611408   
4.850003189   -11.6880759   3.452830779   
3.364029068   -11.67624581   3.205945436   
3.856179005   -11.71199087   3.119634206   
4.869624339   -14.84058616   1.571934437   
4.280422949   -14.86184321   1.140906678   
4.869657736   -14.84768515   1.002810742   
4.289325734   -11.63288027   0.677988557   
4.874897108   -11.88495327   0.580632259   
6.867271243   -23.8717062   0.923425388   
4.860390632   -14.84567515   0.430878699   
4.30570129   -11.69237825   0.225103291   
4.804086415   -11.71581227   0.109841114   
4.111824713   -14.31308743   0.010136662   
4.639415393   -14.18076668   -0.133854378   
3.312247055   -11.64518409   3.700580508   
3.818190992   -11.71751179   3.62151407   
4.315381478   -11.71978886   3.536159511   
4.810451697   -11.69397842   3.4501984   
3.329250276   -11.69023098   3.206965867   
3.798302958   -11.65647785   3.101729208   
7.770817402   -23.92979382   2.532138085   
4.232623022   -14.86723196   1.140318142   
4.825315506   -14.86635202   1.003066922   
4.274512629   -11.70319754   0.681319265   
4.864750279   -11.96463252   0.583793034   
6.798101363   -23.90707931   0.923982573   
4.816362494   -14.86527184   0.431016565   
4.268781224   -11.70271509   0.225049095   
4.761719178   -11.7147476   0.109693652   
4.053962424   -14.27657456   0.010101947   
4.600815748   -14.21015479   -0.133997921   
3.277539805   -11.65897368   3.701749713   
3.781340694   -11.72643078   3.620668396   
4.276438134   -11.72483784   3.533707615   
4.772730828   -11.70421569   3.448882329   
3.295727368   -11.7087665   3.209261837   
3.75865563   -11.65608183   3.0985406   
7.698278431   -23.95636358   2.532438493   
4.182128402   -14.86286694   1.138993964   
3.613296554   -11.24965283   0.758288408   
4.236210051   -11.70968385   0.680937021   
4.850799767   -12.03602088   0.586547365   
6.718504873   -23.90569727   0.92312814   
3.574998592   -11.15046436   0.322986693   
4.231498765   -11.71199469   0.224976854   
4.719030129   -11.71260564   0.109537517   
4.004739378   -14.26968798   0.010088334   
3.550690908   -11.08263239   -0.104403008   
3.249178669   -11.69569567   3.710226685   
3.738638829   -11.71695468   3.614183652   
4.227370094   -11.70170511   3.522810218   
4.733546578   -11.71075302   3.446513164   
3.247870154   -11.6759718   3.197526875   
3.730539597   -11.69157102   3.104917818   
7.62203153   -23.97133609   2.531537271   
4.128227635   -14.84584229   1.136713253   
3.579672825   -11.26353875   0.758480514   
4.207675008   -11.74330448   0.682138292   
4.784204108   -11.97663033   0.582935085   
6.642457385   -23.91656748   0.922756684   
3.537145408   -11.14994597   0.322655827   
4.209694922   -11.76445989   0.225735502   
4.670836052   -11.69638303   0.109251266   
3.955062053   -14.26070754   0.010073359   
3.513953701   -11.08489496   -0.104322273   
3.202648971   -11.66687673   3.697949799   
3.717116333   -11.774115   3.628280626   
4.185291044   -11.69740682   3.51763415   
4.692214685   -11.711787   3.442564713   
3.205883169   -11.66350504   3.191404286   
3.687648227   -11.68077398   3.099031264   
7.531433681   -23.94050687   2.52582953   
4.077377097   -14.83920451   1.135241971   
3.543303894   -11.26875615   0.758096243   
4.181644792   -11.78438893   0.683776288   
6.56243965   -23.91274102   0.921827924   
3.493940869   -11.1321331   0.321828634   
4.177589964   -11.788629   0.225952255   
4.632354237   -11.7041495   0.109190544   
3.911292163   -14.27277414   0.010073359   
3.47573968   -11.08226558   -0.104196679   
3.168843073   -11.68403097   3.700288208   
3.647224363   -11.67739935   3.5950117   
4.139422072   -11.68207771   3.50918865   
4.632762538   -11.66694955   3.425191388   
3.167297352   -11.66302155   3.1885981   
3.648904558   -11.68277845   3.096578414   
7.458836859   -23.96635013   2.526129937   
4.029219153   -14.842019   1.134506212   
3.50515821   -11.26813842   0.757327701   
4.164008341   -11.84991738   0.686834006   
6.484600006   -23.91636603   0.921196413   
3.441097253   -11.08265672   0.320091546   
4.170538022   -11.8844118   0.227541821   
4.585835379   -11.69131029   0.108938998   
3.870882918   -14.29725513   0.010082208   
3.443204971   -11.0976515   -0.104241531   
3.131744494   -11.68907962   3.698826704   
3.621010841   -11.7197002   3.604597792   
4.098783978   -11.68110363   3.505102156   
4.604719205   -11.70085826   3.430982576   
3.132001829   -11.67455186   3.189108316   
3.611328122   -11.68836147   3.095106895   
7.378540491   -23.96725042   2.523826814   
3.981598975   -14.84660487   1.133917675   
3.468810623   -11.27311628   0.75694343   
4.139774831   -11.89752954   0.688854247   
6.403180162   -23.90622516   0.920044732   
3.395047073   -11.05398323   0.318961084   
4.141933515   -11.91981786   0.227975341   
4.548133755   -11.70066439   0.108895628   
3.832168721   -14.3283846   0.010095822   
3.415302681   -11.12823843   -0.104429919   
3.096846864   -11.70233022   3.699995907   
3.56625091   -11.66927945   3.585707889   
4.062927581   -11.69362341   3.505102156   
4.567748542   -11.71223386   3.430192698   
3.092207459   -11.66915101   3.185026589   
3.572901646   -11.69104091   3.092899376   
7.307293947   -23.9973879   2.5246279   
3.934499153   -14.85296593   1.133476244   
3.434208676   -11.28370501   0.75694343   
4.086992115   -11.86297158   0.686124175   
6.324183967   -23.90450278   0.919227493   
3.36169906   -11.06625997   0.319016219   
4.099814946   -11.91639639   0.227668257   
4.508980666   -11.70616411   0.10881756   
3.792278293   -14.35554337   0.010106713   
3.382307466   -11.14249122   -0.104465801   
3.054159018   -11.68586944   3.691811474   
3.527379824   -11.67006277   3.582606539   
4.027345815   -11.70694365   3.505374669   
4.527273148   -11.71449361   3.426770674   
3.055413224   -11.6748408   3.184006157   
3.535334356   -11.69637954   3.091427856   
7.225890229   -23.99397074   2.521924233   
3.886135834   -14.85435399   1.13266705   
3.401012854   -11.29896618   0.757263685   
4.091193325   -11.99452976   0.693003981   
6.242226977   -23.89091996   0.917964351   
3.336360891   -11.10524188   0.319843412   
4.071940919   -11.95447254   0.228155972   
4.471262417   -11.71527098   0.108774191   
3.726508604   -14.28389617   0.010048173   
3.350694533   -11.16143458   -0.104546543   
3.010645628   -11.66555236   3.682457597   
3.489361718   -11.67347571   3.580350862   
3.991100252   -11.71833304   3.505102156   
4.481996973   -11.70400305   3.419663417   
3.010629215   -11.64952224   3.174567165   
3.506652373   -11.73132153   3.097804841   
7.139463917   -23.97311604   2.517418122   
3.83430865   -14.84206676   1.130827771   
7.114451446   -23.90132681   1.600411202   
4.961594489   -14.69375343   0.848072617   
6.161411889   -23.88093004   0.916849923   
3.327895774   -11.20166591   0.322324962   
4.960755309   -14.71159472   0.280484976   
4.428225554   -11.7102276   0.108600704   
3.670693963   -14.24877893   0.010015502   
4.213416325   -14.19320717   -0.132822726   
2.964924344   -11.63581238   3.670180947   
3.448364483   -11.66664462   3.574994073   
3.947752401   -11.70864083   3.498564002   
4.447780084   -11.72220792   3.420979723   
2.973918636   -11.65495622   3.173546734   
3.456905064   -11.69553939   3.085541301   
7.058293222   -23.96913508   2.514714455   
4.916800236   -14.69276982   1.413847522   
3.787030367   -14.84699568   1.130312786   
7.041371624   -23.92399692   1.600475217   
4.915541785   -14.70606494   0.847908824   
6.088856928   -23.90262446   0.916961324   
3.306192149   -11.25498235   0.323565722   
4.91559732   -14.7267453   0.280484976   
4.383156905   -11.69941105   0.108375175   
3.623511141   -14.24640555   0.010005971   
4.17548468   -14.22525576   -0.133002151   
2.929212206   -11.64485391   3.670180947   
3.422782347   -11.71216393   3.585707888   
3.915467605   -11.7316495   3.501832962   
4.405685382   -11.71954385   3.416241394   
2.936022026   -11.65558692   3.171250764   
3.418831834   -11.6986456   3.083579116   
6.970539235   -23.9419564   2.509607529   
4.903326673   -14.80326557   1.423026041   
3.739027402   -14.84887325   1.129577145   
6.960969893   -23.92153333   1.598874117   
4.911800719   -14.84620829   0.855116276   
6.01110956   -23.90374949   0.916292679   
3.286701684   -11.31690991   0.325054646   
4.866001853   -14.72846568   0.280232104   
4.343763595   -11.70342927   0.108288435   
3.582708988   -14.2690942   0.01001414   
4.125412682   -14.21591148   -0.132795814   
2.894624778   -11.65842671   3.671642454   
3.385502343   -11.71800119   3.58429812   
3.864064691   -11.69701175   3.487939115   
4.369372812   -11.73210169   3.415978181   
2.900482754   -11.66547817   3.171505872   
3.374314058   -11.67927596   3.075730377   
6.887421453   -23.92976319   2.506102776   
4.861920908   -14.83054123   1.424207405   
4.269997106   -11.59128804   1.010156118   
3.690326929   -14.8476928   1.12862073   
6.877890638   -23.9092101   1.596632506   
4.864986924   -14.8574124   0.854897826   
4.2827623   -11.64473394   0.560809722   
3.667848875   -14.77708449   0.56600995   
4.815746245   -16.77374869   0.481364311   
4.683757403   -14.32423208   0.272266241   
4.304041754   -11.70637592   0.108193016   
2.903151617   -11.71462338   0.008215107   
4.073507636   -14.19966586   -0.132526699   
2.856340042   -11.65703481   3.668426903   
3.342422231   -11.7034235   3.576685653   
3.832645736   -11.72253021   3.492025612   
4.324676486   -11.72191855   3.409134136   
2.86560161   -11.67807822   3.172526304   
3.341661323   -11.70075923   3.078673654   
6.810706553   -23.93929794   2.504901147   
4.812403153   -14.83307324   1.423026041   
4.266188658   -11.69140805   1.017735921   
6.805051846   -23.93211696   1.596760655   
4.820921099   -14.87701686   0.855170874   
4.266165683   -11.7103823   0.56333833   
2.870464319   -11.71821661   0.448506039   
4.760714321   -16.77594367   0.481005878   
3.611050522   -11.15938066   0.211899104   
4.268448863   -11.72046568   0.108201688   
4.031015271   -14.21594379   -0.132562581   
2.819439647   -11.66109542   3.666965398   
3.300766803   -11.69330935   3.570482957   
3.785704007   -11.70036147   3.481945513   
4.278097125   -11.70613574   3.400710571   
2.825436955   -11.66895871   3.167679252   
3.298110612   -11.68389944   3.071560674   
6.734536108   -23.95050106   2.503899788   
4.764133709   -14.8392334   1.422208146   
4.228267279   -11.69881699   1.017246924   
6.722687191   -23.92117927   1.594647194   
4.77312255   -14.88508224   0.85478863   
4.222420341   -11.70180275   0.562299837   
6.689825074   -23.85218709   0.683306814   
3.566735432   -11.13898363   0.211303027   
4.221952615   -11.70434627   0.107932789   
3.9911602   -14.24172454   -0.132688168   
2.781653607   -11.66131881   3.664334688   
3.260751823   -11.6885943   3.565972075   
3.743922312   -11.69359395   3.476496933   
4.231327018   -11.6892699   3.392024025   
2.787377145   -11.66816802   3.165128175   
3.245577378   -11.63420023   3.055863196   
6.656496841   -23.95475325   2.50219748   
4.714364092   -14.84049207   1.420935826   
4.210494188   -11.76240629   1.021648131   
6.649800529   -23.94361391   1.594775225   
3.566939635   -11.24207838   0.644954532   
4.203645063   -11.76267872   0.564602663   
6.618218098   -23.87837923   0.683472276   
3.525297059   -11.1269984   0.210869508   
4.203517763   -11.76621109   0.108383847   
3.945580362   -14.2471562   -0.132625375   
2.744111781   -11.66235032   3.661996277   
3.213912714   -11.65877126   3.553848492   
3.705995306   -11.69860466   3.474589825   
4.191212118   -11.69039067   3.388602003   
2.7506795   -11.67290042   3.164107744   
3.213475788   -11.65718663   3.059296901   
6.571118471   -23.93188621   2.497691369   
4.663138641   -14.83683493   1.419209198   
4.180715282   -11.79311709   1.023196661   
6.560729439   -23.90712237   1.590996648   
3.534226927   -11.25868469   0.645282178   
4.173537265   -11.792471   0.565415432   
6.536215497   -23.86675573   0.682562352   
3.479480313   -11.100553   0.210165041   
4.168400751   -11.78187935   0.108409872   
3.901324364   -14.25726508   -0.132607434   
2.697294111   -11.62320389   3.647088678   
3.18443227   -11.69171942   3.560897098   
3.664331738   -11.69155649   3.469141244   
4.152099032   -11.69410291   3.385969624   
2.71332246   -11.67469112   3.162321987   
3.175404087   -11.65857267   3.057089385   
6.493497662   -23.93657026   2.496089196   
4.611684254   -14.83205284   1.417391733   
4.161021475   -11.8529077   1.02727183   
6.481346146   -23.90498545   1.589523579   
3.501445975   -11.27519604   0.645609765   
4.168397131   -11.89383882   0.569659879   
6.459829929   -23.87511688   0.682231487   
3.430601742   -11.06342684   0.209261881   
4.164636738   -11.88709705   0.109259939   
3.857043229   -14.26723609   -0.132589493   
2.65671545   -11.60998346   3.640365751   
3.144558802   -11.6866106   3.556385982   
3.637563536   -11.73215138   3.477859018   
4.114922366   -11.70314652   3.384916768   
2.677492088   -11.6829605   3.162321987   
3.139621087   -11.66825986   3.057089385   
6.417712567   -23.94772921   2.495187974   
4.566158322   -14.846131   1.417391733   
4.136091507   -11.89856714   1.030124507   
6.401263226   -23.89969513   1.587858464   
3.464785178   -11.27920319   0.645227579   
4.14171301   -11.93488426   0.571014513   
6.373904173   -23.84750299   0.680880428   
3.394884296   -11.06816451   0.209153505   
4.130114336   -11.9054869   0.109311988   
3.810415946   -14.26837553   -0.132490803   
2.620873511   -11.61714627   3.640073449   
3.100064415   -11.66374949   3.546518075   
3.585471871   -11.69082312   3.462330578   
4.074240436   -11.70204908   3.380968081   
2.637161631   -11.67131467   3.156964723   
3.09484386   -11.64410724   3.048259551   
6.340392894   -23.95287756   2.493685936   
4.517401278   -14.84958944   1.416392044   
4.09567576   -11.89989158   1.029146396   
6.321529236   -23.89510235   1.586257364   
3.429294001   -11.28691386   0.645063727   
4.06904556   -11.84266553   0.566002419   
6.306579248   -23.8891749   0.681514621   
3.364975377   -11.09192267   0.209406393   
4.089346304   -11.90580691   0.109199224   
3.759482233   -14.25292525   -0.132239628   
2.582936648   -11.61486425   3.636858137   
3.060611974   -11.65928512   3.542289005   
3.543164111   -11.68059071   3.456064697   
4.04240715   -11.72635024   3.384390103   
2.600711498   -11.67651874   3.156199398   
3.061567109   -11.66292469   3.050712402   
6.253287454   -23.92023505   2.488278603   
4.469813848   -14.8567037   1.415755943   
4.072327912   -11.95108118   1.032488071   
6.247938222   -23.91341819   1.586193229   
3.388903259   -11.27825701   0.643971711   
4.076446682   -11.98371688   0.572143307   
6.226954189   -23.88422875   0.680825294   
3.352766348   -11.17497592   0.210779192   
4.074692238   -11.98267396   0.109789064   
3.71069584   -14.24503899   -0.132060204   
2.546881198   -11.62086526   3.636273534   
3.016641613   -11.63704366   3.532703148   
3.509800064   -11.69970035   3.458516594   
3.998621909   -11.71587217   3.377809275   
2.559486139   -11.65988787   3.149566594   
3.023581936   -11.6638163   3.048504884   
6.176141116   -23.92485778   2.486776567   
4.420237456   -14.85698338   1.414483623   
4.940063275   -14.64463851   1.263876878   
6.164820361   -23.89478815   1.583695556   
7.096502097   -23.88275116   1.362420111   
4.956245677   -14.71805036   0.701960375   
6.15439669   -23.90612419   0.680908025   
3.332685383   -11.23313676   0.211682351   
4.925759381   -14.63258523   0.133929295   
3.690390335   -14.3473893   -0.132903475   
2.512629914   -11.63516742   3.638319641   
2.978070813   -11.63509007   3.529319751   
3.466227561   -11.68458487   3.450888393   
3.955247663   -11.7061488   3.371491658   
2.521657823   -11.65823483   3.147015515   
2.986822102   -11.66928114   3.047523792   
6.09533969   -23.91476857   2.483772492   
4.369295808   -14.85232245   1.412756995   
4.909631954   -14.70321221   1.267626011   
6.08877339   -23.90295009   1.582991029   
7.023478853   -23.90536799   1.362474708   
4.914858676   -14.74455855   0.702502241   
6.068466169   -23.87548307   0.679501773   
3.302428634   -11.2576991   0.211953299   
4.898230664   -14.69980568   0.134406386   
3.662846313   -14.42357979   -0.133504514   
2.473339939   -11.62598476   3.633058221   
2.941185494   -11.63952073   3.527910218   
3.428738459   -11.6896247   3.449253796   
3.921763218   -11.72554812   3.37359761   
2.486483629   -11.66875296   3.147780838   
2.947207068   -11.66335091   3.043599422   
6.022184221   -23.93432093   2.483872628   
4.321762034   -14.85896392   1.412120894   
4.907662061   -14.84879858   1.278873526   
6.013708098   -23.91474308   1.582542683   
6.947598323   -23.91817287   1.361983209   
4.894326596   -14.83451413   0.7060694   
5.993729271   -23.88817255   0.67933637   
4.852518396   -16.73169993   0.314732762   
4.828365934   -14.63974247   0.133721126   
4.26852188   -17.02741675   -0.157483656   
2.435895126   -11.62509371   3.630427273   
2.904997644   -11.64662777   3.527346358   
3.392591079   -11.6991643   3.448981283   
3.876978638   -11.71096455   3.365963922   
2.45087127   -11.67727257   3.148035945   
2.908360552   -11.66010945   3.040410812   
4.270651418   -14.85301156   1.410303429   
4.856195958   -14.84578666   1.277324997   
2.898755963   -11.6788787   0.77225014   
6.863162296   -23.90098604   1.359799175   
4.85437338   -14.86655346   0.706882169   
2.894365506   -11.68735957   0.332113267   
4.800887976   -16.74554759   0.314714702   
4.681964508   -14.34363954   0.13088466   
2.881132439   -11.64437669   -0.10761458   
2.400218464   -11.63251239   3.630427273   
2.871087492   -11.66293812   3.529601799   
3.352970559   -11.69656876   3.445167301   
3.849742811   -11.74939035   3.373597609   
2.412294458   -11.67148077   3.144464437   
2.871647262   -11.66521207   3.03942972   
4.222340226   -14.85646379   1.409394578   
4.812775962   -14.86725308   1.277895533   
2.863386858   -11.6896559   0.772378231   
6.78516825   -23.90559966   1.358871011   
4.809355156   -14.88327716   0.70697247   
4.751126668   -16.76596933   0.314823093   
3.601478157   -11.14931025   0.101635342   
2.851087245   -11.67647529   -0.10782988   
2.361472914   -11.62482619   3.625750453   
2.831442272   -11.6558428   3.524808871   
3.315234158   -11.70032027   3.443260427   
3.797311572   -11.71067282   3.359119878   
2.374354735   -11.66840352   3.141658248   
2.834472245   -11.66831521   3.0379582   
4.17431743   -14.8607194   1.408576683   
4.768053207   -14.88479552   1.278140031   
2.82446231   -11.68577554   0.771545614   
6.70828896   -23.91380617   1.35816112   
4.762758562   -14.89510795   0.706836989   
6.692623414   -23.89644645   0.44832802   
3.545030787   -11.09077504   0.101002125   
2.807990163   -11.65503122   -0.107551787   
2.322609853   -11.61607511   3.620781335   
2.796563832   -11.66820662   3.525936591   
3.277246833   -11.70302404   3.441080806   
3.743680555   -11.66715198   3.34332584   
2.336836334   -11.66710048   3.139362277   
2.79730518   -11.67129951   3.036486442   
4.121780317   -14.84850737   1.406213955   
4.717245488   -14.88320287   1.276754462   
6.632223534   -23.9246519   1.357615142   
3.546366646   -11.20938167   0.531414618   
6.617678245   -23.91108592   0.448219629   
3.491991807   -11.04153377   0.100455647   
2.284745792   -11.61188582   3.617273719   
2.749494649   -11.62911245   3.511557565   
3.245946087   -11.72971498   3.445984599   
3.702905719   -11.66295051   3.338850724   
2.298787244   -11.66283094   3.136300983   
2.759700458   -11.67227861   3.034524256   
4.073572307   -14.85147918   1.405305223   
4.666791049   -14.88238881   1.275450431   
6.550351087   -23.91406993   1.355867891   
3.511960057   -11.22020902   0.531414618   
6.539278285   -23.91295132   0.447876425   
3.455711691   -11.04455998   0.10038626   
2.247656374   -11.61132945   3.614935309   
2.705306592   -11.6010536   3.500561941   
3.203346569   -11.71548793   3.438901422   
3.669997919   -11.68346005   3.341483103   
2.262074992   -11.66508302   3.135025445   
2.723217095   -11.67785862   3.033788497   
4.024081981   -14.84948848   1.403942064   
4.614318582   -14.87474206   1.273575865   
6.472779604   -23.91863175   1.354994206   
3.4512227   -11.14599953   0.527395954   
6.45232329   -23.88270979   0.446937146   
3.423289374   -11.05988611   0.10042963   
2.211307265   -11.61441268   3.613766104   
2.67034731   -11.61210339   3.501407848   
3.158355596   -11.69182082   3.429093836   
3.620680888   -11.6513643   3.329111322   
2.223559121   -11.65772054   3.131198825   
2.686508023   -11.68237947   3.032807406   
3.97490053   -14.84829641   1.402669744   
4.564860621   -14.8764417   1.272516214   
6.394210469   -23.91908461   1.353902249   
3.407356741   -11.125015   0.525905897   
6.369482811   -23.86664884   0.446268799   
3.394904139   -11.088504   0.100594437   
2.174784365   -11.61644246   3.612304363   
2.629617649   -11.59778486   3.49464129   
3.106098214   -11.64009887   3.411113498   
3.60702787   -11.73434592   3.349643456   
2.182792362   -11.63787866   3.124055806   
2.646366983   -11.67165718   3.027901943   
3.105058642   -11.67135954   2.931410907   
3.926018188   -14.84790582   1.40148838   
4.516304767   -14.88083969   1.271701181   
6.306267558   -23.8835605   1.350789933   
3.38073982   -11.1602738   0.52707987   
4.424640323   -16.78580426   0.31361285   
3.370722397   -11.13140642   0.10088936   
2.138962187   -11.62211947   3.612012062   
2.594023823   -11.60579794   3.49464129   
3.069636416   -11.6467822   3.410296198   
3.552488847   -11.68443719   3.332269894   
2.142869617   -11.62169928   3.117933217   
2.612026731   -11.68634401   3.029618796   
3.065779279   -11.66767181   2.928108807   
3.878937216   -14.85409886   1.400943116   
4.465758532   -14.87839736   1.270315611   
6.226665367   -23.87864117   1.349424868   
3.346198037   -11.16963598   0.527034749   
4.427275065   -17.00733302   0.317496421   
3.344588179   -11.16851757   0.101132235   
2.100232258   -11.61168739   3.606750638   
2.554896455   -11.59777344   3.489848362   
3.027831287   -11.63286653   3.403485298   
3.517458108   -11.69805305   3.333059774   
2.104273679   -11.61204438   3.113596381   
2.570738546   -11.6696868   3.023241812   
3.029236835   -11.67420117   2.927401182   
3.82887136   -14.84857164   1.399307327   
4.41612107   -14.87865051   1.269174658   
6.150638852   -23.88699454   1.348824291   
3.31815667   -11.20092257   0.528028121   
4.414155455   -17.1728672   0.32033235   
3.310308076   -11.17872597   0.101132235   
2.062590474   -11.60677746   3.603243024   
2.516657245   -11.59336851   3.486183153   
2.986619208   -11.62066688   3.397219416   
3.483752173   -11.71618682   3.335165487   
2.056774243   -11.55180984   3.095738594   
2.533279179   -11.66993959   3.021279627   
2.996300818   -11.69473656   2.930231687   
3.780841711   -14.85059794   1.398398594   
4.367085304   -14.88065309   1.268196546   
6.075111464   -23.89704299   1.34833291   
3.281249866   -11.20242154   0.527621736   
6.058169301   -23.87226963   0.444950195   
4.186666948   -14.29912993   0.129245249   
2.025491572   -11.60457252   3.600612314   
2.479873393   -11.59540506   3.484491571   
2.955922921   -11.64936019   3.402940509   
3.437178227   -11.69072372   3.324899424   
2.024822084   -11.57806727   3.10109586   
2.495639622   -11.66912463   3.01907211   
2.946586431   -11.64923133   2.916550992   
1.864828428   -10.64460097   2.422915619   
3.73016525   -14.84184526   1.396490173   
4.318634061   -14.88440892   1.267381512   
5.997150166   -23.89716697   1.347295432   
6.918033538   -23.89011629   1.124193242   
5.987817062   -23.90238289   0.445166947   
4.144446163   -14.31767043   0.129297284   
1.987779685   -11.59847792   3.596812397   
2.443496565   -11.59920342   3.483363615   
2.91479234   -11.63690758   3.396674631   
3.402103349   -11.70399254   3.325689065   
1.988636801   -11.58041267   3.100075428   
2.459627558   -11.67577734   3.018826777   
2.904712538   -11.63370237   2.910418388   
1.825214387   -10.60988194   2.413727202   
3.678619377   -14.82905513   1.394218282   
4.268827559   -14.88321844   1.266159021   
2.904165508   -11.72463054   0.660515993   
6.843057322   -23.90546532   1.123922279   
2.896632149   -11.71524193   0.218022527   
4.095549095   -14.3130132   0.12914115   
1.951393516   -11.5998071   3.595350893   
2.405170709   -11.59349402   3.479416596   
2.881848187   -11.6570033   3.399943824   
3.354190253   -11.67265075   3.313843714   
1.952295703   -11.58169225   3.098799889   
2.423401435   -11.68136994   3.018336349   
2.870634789   -11.64916439   2.912069438   
1.793142479   -10.61831898   2.414383335   
4.216078407   -14.87131383   1.264039838   
2.866284486   -11.72572523   0.66007921   
6.767236537   -23.91769529   1.123515894   
4.04699192   -14.3091527   0.128993688   
1.915329316   -11.60290858   3.594473753   
2.369014973   -11.59799789   3.478570686   
2.842878575   -11.65270343   3.396129606   
3.324425953   -11.70423083   3.319898115   
1.917069914   -11.58953446   3.099310103   
2.38541797   -11.67830166   3.015638168   
2.833045222   -11.65036173   2.91018259   
4.166668932   -14.87074213   1.262898885   
2.823039145   -11.70437276   0.658386557   
6.691405169   -23.92968628   1.12310951   
4.000919456   -14.31379746   0.128924308   
1.879264502   -11.60589791   3.593596849   
2.333232634   -11.6042712   3.478288876   
2.806664924   -11.65949993   3.39558482   
3.283287314   -11.69579796   3.314633356   
1.88134987   -11.59440732   3.099054996   
2.346329471   -11.66940777   3.011468702   
2.798876097   -11.66561374   2.911833641   
4.118633124   -14.87481046   1.262165271   
2.780182996   -11.68383704   0.656748502   
6.613169014   -23.93276941   1.122296741   
3.951661859   -14.30672675   0.128750814   
1.841249877   -11.59649653   3.588920029   
2.297806284   -11.61231586   3.478570687   
2.767101572   -11.65214141   3.390953539   
3.237847497   -11.67142001   3.304893719   
1.846073741   -11.60203478   3.099565213   
2.307694475   -11.6622862   3.007789429   
2.765535319   -11.68454827   2.914428114   
0.616371206   -3.866320948   0.726618511   
4.068507239   -14.87103331   1.260779702   
6.531030325   -23.92114443   1.120806744   
3.91064677   -14.32939487   0.128846241   
1.804193072   -11.59264115   3.585997016   
2.261986088   -11.61836867   3.478288874   
2.730682081   -11.65776562   3.390136241   
3.195393761   -11.65710845   3.298049676   
1.811215536   -11.61242066   3.100840752   
2.269125073   -11.65503722   3.00411039   
2.72304721   -11.66458758   2.907352087   
4.020523681   -14.87478678   1.260046207   
6.451627141   -23.91888398   1.119768192   
3.880983635   -14.39442656   0.129323317   
1.767609618   -11.59150411   3.583950908   
2.226511381   -11.62619569   3.478570685   
2.691222109   -11.65015035   3.385504957   
3.156589138   -11.65568234   3.294890868   
1.774996289   -11.61409894   3.099820319   
2.231716312   -11.6533743   3.001902872   
2.683323641   -11.65584057   2.90310633   
0.598291816   -3.906961293   0.733552615   
3.966385467   -14.85527386   1.257356607   
6.374356745   -23.92408644   1.119090846   
3.947206149   -14.82080014   0.133044539   
1.731191473   -11.59119811   3.582197102   
2.189766639   -11.62731493   3.476879106   
2.651834685   -11.64240383   3.38087344   
3.122809783   -11.67276741   3.296996818   
1.738640754   -11.61470855   3.09854478   
2.195415505   -11.65730889   3.001167114   
2.639592325   -11.6289541   2.894379019   
0.594178345   -3.961284396   0.743406277   
3.919266429   -14.86159066   1.25686761   
6.292284483   -23.91068217   1.117555668   
3.901717997   -14.83283983   0.133044539   
1.693961709   -11.58509892   3.578689485   
2.154084298   -11.63397827   3.476879106   
2.613574091   -11.63921911   3.377604245   
3.075153151   -11.63752283   3.284361588   
1.700194849   -11.60085417   3.093442622   
2.158052557   -11.65541025   2.998959597   
2.605812662   -11.64553173   2.896501895   
0.617462274   -4.204404402   0.952758232   
0.580308102   -3.951415623   0.741216582   
3.872648426   -14.86968648   1.256541573   
6.220405927   -23.9356761   1.117826512   
3.854181714   -14.83699782   0.132975144   
1.658546627   -11.59118807   3.578981787   
2.117007457   -11.63298112   3.474623666   
2.568288554   -11.60396842   3.365072487   
3.038460783   -11.64316836   3.28330873   
1.664870518   -11.60793048   3.093952839   
2.121242512   -11.65625285   2.997488075   
2.566095728   -11.63544119   2.892020342   
0.603588724   -4.199518059   0.951226811   
0.566783823   -3.943445082   0.739391843   
3.825024654   -14.87377631   1.255889499   
6.125588997   -23.87143037   1.113943388   
3.805911455   -14.83809778   0.132879732   
1.621386988   -11.58485694   3.575473937   
2.078099325   -11.62147676   3.469266641   
2.535341471   -11.62401405   3.368614193   
3.001762799   -11.64869885   3.282255638   
1.627235031   -11.59862021   3.09012622   
2.078304639   -11.62262529   2.987186488   
2.527497505   -11.62996397   2.888718242   
0.591788778   -4.209080291   0.952976983   
0.553587746   -3.937376588   0.737932009   
3.773488064   -14.86225586   1.253933393   
6.05036089   -23.88236415   1.113582065   
3.757179966   -14.83710199   0.13276696   
1.584541058   -11.58030194   3.572550925   
2.040775486   -11.61834795   3.466447341   
2.495018005   -11.61010161   3.362348314   
2.965773255   -11.65691811   3.281992423   
1.591906077   -11.60547415   3.090636437   
2.04163074   -11.62321692   2.985714965   
2.492212168   -11.63956472   2.889189838   
0.577942498   -4.204109414   0.951445562   
0.542174937   -3.94392658   0.738844435   
3.723027566   -14.85442749   1.252303325   
5.974396416   -23.89015408   1.113085439   
3.706550065   -14.82818729   0.132584808   
1.549005659   -11.5851086   3.572550925   
2.004632053   -11.62171786   3.465601433   
2.458589871   -11.61393648   3.361258504   
2.929526319   -11.66409061   3.281465994   
1.556164962   -11.60934445   3.090381327   
2.003984093   -11.61796196   2.982771688   
2.458095128   -11.65476297   2.89107692   
0.566081122   -4.213599513   0.953195792   
0.527847052   -3.929005493   0.735742311   
0.415983233   -3.095124171   0.345439295   
2.891528871   -11.71511075   0.545412292   
2.893623111   -11.72887613   0.104792742   
1.51308432   -11.5869621   3.571674023   
1.967686097   -11.62024539   3.463345991   
2.422358233   -11.61859855   3.360441204   
2.893263266   -11.67115094   3.280939566   
1.519160052   -11.60351819   3.087575141   
1.963637467   -11.59633566   2.975658708   
2.425291815   -11.67652098   2.89461505   
0.551246968   -4.200804085   0.949914198   
0.506196207   -3.857492364   0.722056666   
0.635015679   -3.758477134   0.668958422   
0.764278674   -3.701010889   0.484248061   
2.854391782   -11.71907442   0.54518651   
1.478859027   -11.60198433   3.574889335   
1.930453666   -11.61676295   3.460526691   
2.385540368   -11.62032082   3.358806608   
2.85721392   -11.67903466   3.28067635   
1.481960295   -11.59565623   3.084258739   
1.925508482   -11.58700454   2.97173434   
2.389652081   -11.68485928   2.894850848   
0.536744633   -4.189893052   0.947070102   
0.496857895   -3.878532319   0.725706142   
0.622192945   -3.752634009   0.667575534   
0.741261107   -3.645990004   0.47674923   
