X     Y     Z
4.46258329   0.82040103   -0.837429671   
4.209932452   0.93423984   -0.837922866   
3.982102105   1.037329462   -0.840721156   
3.771140815   1.135123629   -0.845443395   
3.745284073   0.684073616   -0.850112964   
3.526997769   0.779910693   -0.841847572   
3.383093571   0.880910665   -0.851045397   
3.156592826   0.949061598   -0.837857731   
3.150369845   0.57149331   -0.84337824   
3.007752969   0.662614828   -0.842385401   
2.882252808   0.749692997   -0.846046816   
2.765258965   0.831929417   -0.852852073   
25.58792231   6.660937192   0.477680685   
22.00942276   6.591067927   0.199297903   
25.27395683   6.568845706   -0.476787476   
21.82948102   6.522653587   -0.635594708   
15.92678308   3.520722526   -0.738694098   
13.6150721   3.532040361   -0.773346717   
11.77044708   3.512760522   -0.792827484   
10.560152   1.928465497   -0.778707812   
9.458066599   2.086094794   -0.795433216   
8.526246734   2.206649796   -0.806319814   
7.68286745   2.289947146   -0.813052344   
7.399647082   1.346098796   -0.823161732   
6.745077115   1.483637673   -0.821450479   
6.225414255   1.609208383   -0.827014508   
5.750303088   1.711962237   -0.830930893   
5.649313149   1.024734975   -0.842609537   
5.347372904   1.172972182   -0.85581705   
4.849710533   1.250893788   -0.831566145   
4.658165694   1.386283549   -0.856699276   
4.450563575   0.804083574   -0.834707229   
4.202230185   0.919012556   -0.835824723   
3.976725785   1.022910928   -0.838919605   
3.78303953   1.126059058   -0.847332388   
3.749286256   0.672924902   -0.850548793   
3.552211475   0.774062904   -0.847294958   
3.339670445   0.858671905   -0.839455332   
3.209654817   0.954287865   -0.85116095   
3.166388393   0.564370688   -0.847199017   
3.022025714   0.656044267   -0.845815055   
2.895719729   0.743718324   -0.849326085   
2.765040671   0.822621372   -0.852002349   
22.60299071   6.695900629   1.065538457   
22.07460476   6.536857229   0.199705584   
21.99318743   6.49813737   -0.639777703   
15.9287254   3.469929689   -0.73828688   
13.6026302   3.484306882   -0.772029156   
11.78308231   3.477197667   -0.792956289   
10.55521985   1.89412043   -0.777911911   
9.464422013   2.057068093   -0.795433216   
8.554203042   2.185905373   -0.80832557   
7.688902372   2.26608435   -0.812951492   
7.392977915   1.321466647   -0.82196493   
6.743774187   1.461675045   -0.820741838   
6.23608819   1.591573095   -0.827779892   
5.761229634   1.695990885   -0.831754032   
5.638793653   1.004967834   -0.84057672   
5.340323405   1.154265113   -0.854118078   
4.85352553   1.2360092   -0.831566146   
4.641612431   1.365869735   -0.85288017   
4.450104713   0.789910045   -0.83416274   
4.203110434   0.905702391   -0.835443252   
4.01118292   1.018664034   -0.84552529   
3.780848792   1.112791206   -0.846073061   
3.745566224   0.66040225   -0.849241304   
3.552665323   0.762752347   -0.846841011   
3.32722089   0.844596938   -0.835670794   
3.172584692   0.932682121   -0.840567654   
3.16905756   0.554820489   -0.847453767   
3.018364753   0.645559283   -0.844232133   
2.868149931   0.727265071   -0.840581425   
2.768471481   0.814405134   -0.852285591   
80.15862294   17.26003262   2.261706532   
22.31432005   6.533448203   0.201691983   
25.22257093   7.368234814   -0.733058912   
15.96762016   3.427123936   -0.739598896   
13.61422417   3.442802915   -0.772084052   
11.80614923   3.444665038   -0.793793616   
10.55017656   1.85982389   -0.77711607   
9.47556148   2.029065462   -0.795842462   
8.56086898   2.159651205   -0.80832557   
7.748352985   2.257792354   -0.818500982   
7.385248214   1.296716132   -0.82065935   
6.755995731   1.442637514   -0.821686692   
6.255368486   1.576068423   -0.829693381   
5.769259305   1.679138138   -0.832165603   
5.634053368   0.986298732   -0.839415085   
5.339974354   1.137052748   -0.853500277   
4.858251206   1.221353478   -0.831729938   
4.625923101   1.345845649   -0.84923463   
4.448632032   0.775577973   -0.833436755   
4.199147849   0.891376321   -0.83410805   
3.997182821   1.002064654   -0.841922189   
3.765469109   1.095722873   -0.841875223   
3.721610103   0.644412037   -0.843357374   
3.555941485   0.752050877   -0.847067985   
3.331681548   0.834857534   -0.836143877   
3.173569867   0.922403374   -0.840074904   
3.182181057   0.547061407   -0.85051041   
3.035432758   0.639477518   -0.848453332   
2.883431704   0.721732262   -0.844407209   
2.790295676   0.811532237   -0.858233775   
22.58399733   6.537247925   0.203947259   
15.90378079   3.362415444   -0.736160603   
13.58597118   3.391346028   -0.769888157   
11.79940278   3.403449836   -0.792634246   
10.53814326   1.824385213   -0.775813768   
9.486617445   2.001013772   -0.796251707   
8.593544888   2.139873544   -0.810787182   
7.760023479   2.235387085   -0.819005476   
7.378416348   1.272194503   -0.819462608   
6.773022304   1.424560626   -0.823222107   
6.274611993   1.560460379   -0.831606869   
5.783902622   1.664169286   -0.833537462   
5.638028181   0.969176617   -0.839560283   
5.345371601   1.121070197   -0.853809207   
4.863890422   1.206918037   -0.832057526   
4.578922164   1.316947892   -0.839860429   
4.449051855   0.761594288   -0.833073762   
4.207627778   0.879694658   -0.835252517   
4.014504159   0.993326744   -0.844924771   
3.769752654   1.084435743   -0.842085092   
3.74377503   0.636426071   -0.847933758   
3.521047939   0.733392831   -0.838215981   
3.339886233   0.826031842   -0.837563062   
3.195946318   0.918283126   -0.845248409   
3.206729249   0.541157991   -0.856623701   
3.032658041   0.629182223   -0.847134222   
2.919251455   0.721188036   -0.854244957   
2.816736714   0.809858071   -0.865598111   
81.93917849   17.11803407   2.308938444   
22.8183347   6.529275882   0.205881609   
13.57595285   3.344632827   -0.768735285   
11.82418329   3.371338082   -0.793600436   
10.55254052   1.793550162   -0.776464948   
9.472219313   1.967643015   -0.794532827   
8.556551482   2.1028042   -0.806684474   
7.769715496   2.212386633   -0.819308149   
7.359741708   1.245736199   -0.816960227   
6.826951246   1.414046068   -0.829245692   
6.287075757   1.543094099   -0.832627419   
5.794697775   1.648042584   -0.834360544   
5.64097488   0.951874848   -0.839560282   
5.361364106   1.10726338   -0.855817049   
4.864695861   1.191286192   -0.831566146   
4.55736421   1.295622572   -0.835173298   
4.444578789   0.746800571   -0.831803289   
4.207422521   0.866187887   -0.834680255   
3.999448641   0.976589872   -0.841121518   
3.780585454   1.075004487   -0.843764273   
3.734157973   0.623010051   -0.845318665   
3.544270267   0.726891551   -0.843209418   
3.339573076   0.81509016   -0.83685347   
3.219259163   0.914299031   -0.850668257   
3.159719357   0.523259902   -0.843632931   
2.988266309   0.610415837   -0.83420687   
2.926123264   0.713367721   -0.855611334   
2.822898218   0.802261365   -0.866731135   
22.93640528   6.486997702   0.206766365   
13.53666764   3.290937153   -0.765935475   
11.808537   3.327737802   -0.791861352   
10.55799276   1.761166936   -0.776464948   
9.48699927   1.940370698   -0.79526954   
8.545542298   2.072318647   -0.80504338   
7.755397252   2.182609519   -0.817088353   
7.373335068   1.224779877   -0.818048249   
6.857527984   1.39845193   -0.832434661   
6.28888834   1.52309792   -0.832244756   
5.810215915   1.633205394   -0.835869613   
5.633131177   0.932786126   -0.837963055   
5.370544927   1.09199093   -0.856743781   
4.865450678   1.175660754   -0.831074821   
4.567006096   1.283233084   -0.836214888   
4.461403594   0.735560895   -0.834525733   
4.203325723   0.851910709   -0.83334511   
4.009093679   0.965921673   -0.842522706   
3.777277067   1.061549104   -0.84229502   
3.720641509   0.609028374   -0.841831971   
3.557939319   0.718327332   -0.845933112   
3.377008873   0.813257585   -0.845605161   
3.249109331   0.912013923   -0.857812589   
3.176581958   0.51604456   -0.847708459   
3.061993959   0.615696321   -0.854257396   
2.898369671   0.697188053   -0.846866619   
2.793953411   0.7847793   -0.857100753   
24.92350838   6.969305388   1.169753363   
23.25378179   6.499777909   0.209446696   
13.56029386   3.25265224   -0.766704077   
11.77446993   3.279178324   -0.788898465   
10.56925235   1.729733801   -0.776899049   
9.493885135   1.911452621   -0.795351378   
8.545081165   2.044469618   -0.804405194   
7.742886619   2.15347437   -0.815070378   
7.382944885   1.203112345   -0.818700981   
6.869574772   1.37897018   -0.833379514   
6.291602075   1.503335718   -0.831989589   
5.86101086   1.628097969   -0.842454497   
5.650615581   0.917879079   -0.84014107   
5.363213289   1.073376371   -0.85504481   
4.862317764   1.159126915   -0.829928268   
4.568074834   1.268425218   -0.835694122   
4.458785303   0.721085031   -0.833618251   
4.219396681   0.841699614   -0.836015457   
4.020616893   0.95565643   -0.844324255   
3.769211176   1.04681593   -0.839776306   
3.717674281   0.596837205   -0.840742339   
3.565857631   0.708547153   -0.847294958   
3.392722494   0.806037429   -0.848916617   
3.237883439   0.898155634   -0.854117222   
3.17242025   0.505383693   -0.846180135   
3.032643149   0.600120276   -0.845551244   
2.898622999   0.687848516   -0.846320101   
2.800968436   0.77748642   -0.858517017   
24.96017992   6.897065463   1.17047589   
87.77927522   14.20721656   3.305674922   
23.58012419   6.51306728   0.21220508   
13.56535056   3.209884909   -0.766429597   
11.75079928   3.233772067   -0.786644098   
10.58435665   1.698880252   -0.77762253   
9.518279934   1.885997374   -0.796906523   
8.587173394   2.02670769   -0.807778518   
7.752334737   2.130500332   -0.81537305   
7.385619536   1.180299199   -0.818592202   
6.873772767   1.357888199   -0.833379513   
6.296184943   1.484026361   -0.83198959   
5.852605435   1.60643835   -0.840533858   
5.632886463   0.897270475   -0.837091874   
5.35484876   1.054626187   -0.853191404   
4.855287585   1.141720186   -0.82812654   
4.570995038   1.254143916   -0.835520494   
4.465832918   0.7081724   -0.834525733   
4.223885669   0.829128867   -0.836396927   
4.013036972   0.940856843   -0.84212234   
3.782776662   1.038093422   -0.842085094   
3.742626037   0.589070586   -0.845972466   
3.554633472   0.694987711   -0.844117316   
3.403693161   0.79762007   -0.851045396   
3.258383082   0.893085399   -0.858797975   
3.188287289   0.497886497   -0.85000097   
3.028789204   0.589707334   -0.843968322   
2.891353395   0.676760135   -0.843587406   
2.770969565   0.760010868   -0.848603397   
87.80863665   13.93565317   3.305154693   
23.80450683   6.496507498   0.214044003   
13.56054955   3.164847919   -0.7656061   
11.73273854   3.190112838   -0.784776207   
10.594446   1.667175059   -0.777984271   
9.523042819   1.856596095   -0.796824686   
8.57298304   1.995611812   -0.805863957   
7.767475738   2.109052785   -0.816281186   
7.387241764   1.15732713   -0.818374644   
6.875957021   1.336414414   -0.8331433   
6.294911707   1.463355478   -0.831224206   
5.846033845   1.585364178   -0.838887637   
5.669827151   0.885327294   -0.842173945   
5.358058915   1.038192746   -0.853191404   
4.853001384   1.12548179   -0.827143836   
4.5634152   1.237022578   -0.833437314   
4.469927899   0.694770156   -0.834888724   
4.23026477   0.816910769   -0.837159924   
3.999677222   0.924788416   -0.838719453   
3.789718305   1.02750649   -0.842924684   
3.736699418   0.576395324   -0.844229092   
3.557705287   0.684262913   -0.844344291   
3.390977561   0.783673445   -0.847260917   
3.245204559   0.878778121   -0.854609973   
3.194579354   0.488833951   -0.851274545   
3.028689306   0.580049539   -0.843440699   
2.914036448   0.672646167   -0.849599369   
2.796429594   0.757776995   -0.855684545   
76.83709667   17.75213206   1.424714835   
24.14679739   6.510389374   0.216941176   
13.54878809   3.118303012   -0.764398331   
11.72994176   3.150736932   -0.783938822   
10.58373902   1.632231641   -0.776826689   
9.506181567   1.823053638   -0.794942132   
8.576153789   1.96863255   -0.805590432   
7.785440969   2.088305604   -0.817491995   
7.385845091   1.13390383   -0.817830634   
6.861493406   1.311770167   -0.830899245   
6.298404868   1.443814422   -0.831096652   
5.857567681   1.569215624   -0.839847985   
5.681318514   0.869275123   -0.843480776   
5.359277736   1.021379649   -0.852882473   
4.867971846   1.113226733   -0.829109301   
4.588117625   1.228620694   -0.837256481   
4.472038224   0.681053294   -0.834888723   
4.256861218   0.80850787   -0.841928416   
3.98147988   0.907722034   -0.834315682   
3.78718605   1.014357271   -0.841665355   
3.75775027   0.56784509   -0.848587502   
3.532993628   0.668276596   -0.837989004   
3.391471209   0.772834616   -0.846787836   
3.246012752   0.868316949   -0.854117222   
3.182675235   0.477024148   -0.847708457   
3.061735692   0.576646322   -0.852146796   
2.926403975   0.666051161   -0.852605352   
2.776506998   0.743242212   -0.848886636   
24.4555753   6.513224728   0.219534768   
13.5738713   3.080256615   -0.765276725   
11.72894307   3.111920243   -0.783230361   
10.61335096   1.603478381   -0.778635451   
9.491163242   1.790001751   -0.793223254   
8.593807453   1.944949737   -0.806684474   
7.796619781   2.065684341   -0.817996489   
7.38339075   1.110351999   -0.817177843   
6.839136176   1.285759567   -0.827710277   
6.314413985   1.427108117   -0.832627419   
5.87384549   1.554278123   -0.841494206   
5.678087955   0.850961169   -0.842609536   
5.360444045   1.004568842   -0.852573544   
4.870401894   1.098069716   -0.828945508   
4.586152846   1.213027866   -0.83621489   
4.457572202   0.664863883   -0.83180329   
4.22361835   0.788776472   -0.83487099   
3.977554666   0.893998771   -0.832914438   
3.785554204   1.001483309   -0.840615896   
3.73051104   0.552027885   -0.842049884   
3.509175245   0.652626525   -0.831860751   
3.388138386   0.761148334   -0.84536865   
3.20555821   0.846965589   -0.842784829   
3.1975185   0.469223201   -0.851274543   
3.06823265   0.568128441   -0.853465964   
2.908723025   0.652647342   -0.846866619   
2.786191814   0.736681749   -0.851152627   
24.89321504   6.548058606   0.223282007   
13.55110146   3.03140492   -0.763465101   
11.7355389   3.075162898   -0.783037123   
10.55902284   1.562151495   -0.774294445   
9.481910307   1.758149251   -0.791995457   
8.583211793   1.914888945   -0.805134576   
7.804845467   2.042258536   -0.818198251   
7.375944359   1.086101929   -0.8159811   
6.832307571   1.262786084   -0.826411075   
6.334252041   1.41117996   -0.83466852   
5.876669736   1.535749204   -0.841219788   
5.682629794   0.833824316   -0.84289993   
5.358642461   0.987223516   -0.851801305   
4.871821454   1.082694372   -0.828617919   
4.584135528   1.197458639   -0.835173298   
4.466402478   0.652179727   -0.833073763   
4.218294229   0.774396872   -0.833345109   
3.983148473   0.88242736   -0.833514955   
3.820771998   0.998268037   -0.847752183   
3.731221313   0.54044031   -0.84183197   
3.538943741   0.646936228   -0.838442954   
3.380970984   0.748649465   -0.843003298   
3.232523805   0.843489355   -0.849190121   
3.188413969   0.457899014   -0.848472648   
3.070910051   0.558885298   -0.853729773   
2.907893872   0.64309726   -0.846046816   
2.795862204   0.73006882   -0.853418558   
25.1522444   6.533755727   0.225424526   
13.55448752   2.988526399   -0.763135667   
11.72366436   3.033644456   -0.781620082   
10.55981657   1.529177689   -0.774005005   
9.477454784   1.727263916   -0.791176966   
8.590990996   1.888974674   -0.805316906   
7.816853831   2.019797487   -0.818803655   
7.384161549   1.064176647   -0.816525054   
6.826379183   1.24004412   -0.825230008   
6.359864054   1.396419644   -0.837474945   
5.881353571   1.517712614   -0.841219787   
5.674388533   0.814839327   -0.841302705   
5.357757298   0.970074664   -0.851183503   
4.869338506   1.066476404   -0.827635217   
4.593509287   1.184864873   -0.836214888   
4.480064012   0.640143137   -0.835251716   
4.216786168   0.760754535   -0.832582112   
3.959992257   0.864560566   -0.828110362   
3.776480439   0.974328582   -0.837257593   
3.729962897   0.528579762   -0.841178169   
3.590756819   0.645029818   -0.850245627   
3.378505582   0.737237545   -0.841820624   
3.227588172   0.831633588   -0.847219235   
3.197464695   0.449191186   -0.850510412   
3.073559703   0.549631018   -0.853993583   
2.923951327   0.637245521   -0.850145887   
2.824091691   0.7281926   -0.861349432   
25.64194605   6.577054178   0.229631497   
13.5343211   2.940567958   -0.761488731   
11.70971123   2.991733691   -0.780074236   
10.57532118   1.498312422   -0.774800846   
9.476822972   1.697125319   -0.790685824   
8.610371113   1.865561238   -0.80659328   
7.830726082   1.997773812   -0.819610881   
7.387391458   1.041517353   -0.816525053   
6.825263938   1.218222824   -0.824639446   
6.374781976   1.37920833   -0.838878217   
5.883102872   1.498927982   -0.840808277   
5.673922055   0.797013843   -0.840867113   
5.360708232   0.953632733   -0.851183503   
4.865837441   1.050075748   -0.826488663   
4.586625198   1.16809305   -0.834305336   
4.513172816   0.630751106   -0.841059653   
4.222000015   0.748328019   -0.833154375   
3.979867177   0.856116191   -0.831713404   
3.78418931   0.963944754   -0.838307053   
3.736400567   0.517803737   -0.8422678   
3.545723953   0.625717249   -0.839123878   
3.39120065   0.729115558   -0.844422487   
3.256423947   0.828417979   -0.854117223   
3.181583436   0.437010773   -0.845925444   
3.067631442   0.538863852   -0.851882985   
2.886391677   0.619789944   -0.838668535   
2.826312453   0.719525004   -0.861349432   
13.51594039   2.893179397   -0.759951646   
11.71012562   2.953598389   -0.779494521   
10.60259075   1.46900911   -0.776464948   
9.486893724   1.668906244   -0.791095071   
8.599498239   1.835602202   -0.80504338   
7.833923785   1.973011055   -0.819308149   
7.391536854   1.018984021   -0.816633832   
6.82994746   1.197449026   -0.824757524   
6.382863423   1.360471312   -0.839388434   
5.882870364   1.479663753   -0.840122346   
5.655756287   0.776775641   -0.837817859   
5.363608565   0.937181807   -0.851183503   
4.841053158   1.029193591   -0.82173871   
4.589231994   1.153775848   -0.834131707   
4.502420176   0.61517129   -0.838700202   
4.240716393   0.738233598   -0.836396927   
3.993976581   0.846339346   -0.83411547   
3.803248243   0.956383909   -0.841875225   
3.745708731   0.507386244   -0.844011177   
3.550505714   0.615335123   -0.839804801   
3.405778421   0.7213252   -0.847497429   
3.228870288   0.810869575   -0.84623385   
3.155114883   0.423516889   -0.838538521   
3.076874382   0.530761668   -0.853993584   
2.880750688   0.609339208   -0.836482356   
2.798742695   0.703370447   -0.852285592   
13.53452261   2.853759555   -0.760500605   
11.72106898   2.918140402   -0.779623327   
10.61001289   1.436875371   -0.776681969   
9.497861363   1.640810911   -0.791586212   
8.564159272   1.800605079   -0.801214199   
7.836078101   1.948007482   -0.818904566   
7.393643253   0.996169664   -0.816525054   
6.839460339   1.177500278   -0.825466221   
6.387977928   1.341086326   -0.839516046   
5.898918908   1.464472416   -0.841768567   
5.670860832   0.761131359   -0.839705479   
5.367432474   0.920889133   -0.851337939   
4.884741192   1.022828081   -0.82861792   
4.593706003   1.139928074   -0.834305335   
4.482842178   0.598492195   -0.834707229   
4.248766814   0.726212098   -0.837541394   
4.009022893   0.836684146   -0.83671775   
3.807113383   0.944946771   -0.842085093   
3.741442469   0.495123991   -0.842703629   
3.574459113   0.608196739   -0.845025214   
3.410828897   0.711468218   -0.848207023   
3.252038646   0.806089597   -0.851653645   
3.17269933   0.415972209   -0.8428688   
3.070879901   0.520031031   -0.851882983   
2.89296548   0.602656246   -0.839488338   
2.80181819   0.695011612   -0.852568833   
13.5109519   2.805523526   -0.758688981   
11.72027588   2.87978573   -0.778979239   
10.62920286   1.406279857   -0.77776725   
9.464528402   1.605164862   -0.788393966   
8.555015301   1.771293572   -0.799846629   
7.833321404   1.921824074   -0.817996489   
7.403563544   0.974389519   -0.817286622   
6.87143506   1.161310321   -0.828891402   
6.381377914   1.319273213   -0.838112775   
5.915891014   1.449432213   -0.843551938   
5.690827639   0.746044745   -0.842319143   
5.366335369   0.903761455   -0.850720137   
4.895585568   1.009430818   -0.829928268   
4.574224585   1.120207314   -0.83013903   
4.471005102   0.582956202   -0.832166282   
4.249039   0.712848836   -0.837159926   
4.047079859   0.831677851   -0.844124102   
3.819490929   0.93558844   -0.84418401   
3.742943963   0.483643041   -0.84270363   
3.579189939   0.597708862   -0.845706137   
3.397767579   0.697872874   -0.844422487   
3.2281364   0.789660576   -0.844755715   
3.196981117   0.409182955   -0.84898209   
3.100055172   0.515193078   -0.859533837   
2.944743589   0.604022152   -0.853971671   
2.818842008   0.69006118   -0.857100754   
13.49601808   2.759259267   -0.757371421   
11.73390467   2.844990741   -0.779301283   
10.63445628   1.373791008   -0.77783961   
9.462526936   1.574975139   -0.787821046   
8.58285238   1.749613773   -0.801943581   
7.832411907   1.896144065   -0.817290174   
7.394686398   0.950150864   -0.8159811   
6.895537628   1.143635486   -0.831371671   
6.34166007   1.290787171   -0.832372311   
5.927049925   1.432905089   -0.84451223   
5.706829024   0.730340331   -0.844351959   
5.361284275   0.886004761   -0.849484531   
4.912194363   0.997154164   -0.832221319   
4.599656855   1.111488828   -0.834131708   
4.463017477   0.567995098   -0.830351263   
4.242488538   0.698374592   -0.835443253   
4.010239937   0.811292408   -0.835917022   
3.835648512   0.927081833   -0.84712252   
3.729885648   0.470326086   -0.839434792   
3.578123781   0.586252819   -0.845025215   
3.417987262   0.691104085   -0.848916617   
3.217354226   0.776569502   -0.841306694   
3.203978673   0.400091765   -0.850510411   
3.074013091   0.501178676   -0.851882985   
2.92206729   0.590034712   -0.846866619   
2.824674585   0.682310601   -0.858233775   
13.50148284   2.717250106   -0.757206733   
11.75034244   2.810835527   -0.779816565   
10.66138048   1.344027702   -0.779503652   
9.46829835   1.546097667   -0.787902884   
8.615518338   1.728759421   -0.804496388   
7.833353904   1.870950045   -0.81678568   
7.406443865   0.928572781   -0.816960227   
6.886272516   1.120401913   -0.829836256   
6.33780986   1.269766527   -0.83135176   
5.937198825   1.416093262   -0.845335368   
5.689407416   0.710376926   -0.841447902   
5.354224689   0.867971374   -0.847939997   
4.917164929   0.982465704   -0.832548905   
4.614540457   1.100112656   -0.836214888   
4.464738681   0.554300051   -0.830351261   
4.243641795   0.685199059   -0.835252516   
4.033849542   0.803194555   -0.84032079   
3.847034059   0.917350968   -0.84901151   
3.743903753   0.460429417   -0.8422678   
3.562597225   0.57249119   -0.840939673   
3.422950217   0.681183498   -0.84962621   
3.218778744   0.766470606   -0.841060348   
3.199431449   0.389558937   -0.848982088   
3.084108504   0.493116015   -0.854257395   
2.904050545   0.577129605   -0.841127943   
2.834218028   0.675419963   -0.860499707   
13.50877622   2.675621265   -0.757151837   
11.75988174   2.775001934   -0.779880998   
9.474964746   1.51735727   -0.788066558   
8.597333851   1.697689109   -0.802308242   
7.811942187   1.840520558   -0.813960479   
7.416164722   0.906690234   -0.817721854   
6.868104329   1.095827818   -0.827237851   
6.336810123   1.24935711   -0.83071393   
5.974298967   1.405584594   -0.84999967   
5.701381344   0.694114426   -0.84289993   
5.356862486   0.851540798   -0.847939997   
4.896925047   0.962807806   -0.82861792   
4.629398229   1.088655513   -0.838298072   
4.453726849   0.539063681   -0.827991811   
4.246693754   0.672330056   -0.835443253   
4.036294654   0.790815095   -0.84032079   
3.850782255   0.905767975   -0.849221438   
3.757896046   0.450451138   -0.84510075   
3.567222926   0.562013339   -0.841620596   
3.416442291   0.668998381   -0.847497429   
3.217340949   0.755705465   -0.840074904   
3.215015737   0.381450395   -0.852802866   
3.071312786   0.481411251   -0.850300064   
2.928464817   0.572647912   -0.847686479   
2.833475984   0.666063194   -0.859649982   
13.51790108   2.63435533   -0.757206733   
11.77125538   2.73958852   -0.780074235   
9.478591264   1.48812679   -0.787984721   
8.595658847   1.669975407   -0.801670055   
7.800108635   1.812491912   -0.812144266   
7.420885904   0.884168658   -0.817939412   
6.889093011   1.077513625   -0.829363829   
6.355218557   1.232743228   -0.832627419   
5.991126785   1.390159698   -0.8517831   
5.678921387   0.673705639   -0.839269888   
5.366283239   0.836166935   -0.849021166   
4.910509547   0.949840497   -0.830419647   
4.642309952   1.076672612   -0.840033999   
4.492471492   0.529773697   -0.834888724   
4.234185978   0.65704031   -0.832582112   
4.034853947   0.777686494   -0.839520122   
3.845923454   0.892182102   -0.847542314   
3.752474566   0.438127671   -0.843575288   
3.588180228   0.554038919   -0.846160086   
3.366004228   0.648405398   -0.83448812   
3.221532833   0.746268691   -0.840567656   
3.190234016   0.368588424   -0.845925442   
3.094703202   0.475354534   -0.856367994   
2.94154338   0.56584136   -0.85096569   
2.831769183   0.656500686   -0.858517018   
13.53180333   2.593998517   -0.757536108   
11.78155083   2.703908398   -0.780203042   
9.490992022   1.460252294   -0.788639537   
8.595851563   1.642661921   -0.801214199   
7.801753777   1.787664117   -0.811740684   
7.413688982   0.860251782   -0.816851448   
6.879606507   1.054417448   -0.827828413   
6.348253952   1.211195185   -0.831224206   
5.998260435   1.372435452   -0.852194612   
5.678012996   0.65593917   -0.838834297   
5.370776781   0.819997743   -0.849330096   
4.91727712   0.935508328   -0.831074822   
4.635990758   1.060229572   -0.838298071   
4.474536358   0.513745093   -0.831258801   
4.262384776   0.648030719   -0.837732129   
4.052622554   0.768223717   -0.842722858   
3.839111442   0.878198561   -0.845443396   
3.758649705   0.427164242   -0.84466492   
3.581196707   0.541716968   -0.844117316   
3.389934319   0.642235387   -0.839928355   
3.264435452   0.745661996   -0.851160952   
3.202881553   0.360095662   -0.84898209   
3.10091619   0.466575463   -0.857687105   
2.937594469   0.555741313   -0.849326085   
2.831900003   0.647382358   -0.857950534   
13.54656717   2.553766187   -0.75792038   
11.79076333   2.667970619   -0.780267473   
9.49444203   1.430978973   -0.7885577   
8.597914861   1.615730647   -0.800940674   
7.810112725   1.764378009   -0.812043356   
7.437036781   0.839845366   -0.819136213   
6.889683157   1.034338076   -0.828655131   
6.347065698   1.190798845   -0.830586376   
5.996645486   1.3527187   -0.851371531   
5.679015248   0.638405619   -0.838689099   
5.3879241   0.805708334   -0.851646869   
4.921093961   0.920599328   -0.831238616   
4.63057557   1.044052085   -0.836735656   
4.497592003   0.502416772   -0.835251715   
4.264353178   0.634950878   -0.837732131   
4.042439371   0.753453051   -0.840120639   
3.840834014   0.86620106   -0.845233471   
3.74539176   0.414022362   -0.841396083   
3.591512291   0.532011807   -0.846160086   
3.385202362   0.630586657   -0.838272656   
3.2761626   0.737772515   -0.853624528   
3.212622695   0.351213475   -0.851274544   
3.08897328   0.455091528   -0.853993585   
2.904293989   0.540217615   -0.839215049   
2.846970973   0.6416432   -0.861915971   
13.56808251   2.514741467   -0.758688981   
11.79110136   2.630046647   -0.779752191   
9.529352284   1.406354545   -0.79109507   
8.596955441   1.58825961   -0.800393681   
7.855304421   1.749274976   -0.816180276   
7.454400237   0.818652682   -0.820768188   
6.908543103   1.015506555   -0.830544896   
6.355566243   1.172220229   -0.831224206   
5.987229893   1.331304829   -0.849450949   
5.67897986   0.620764636   -0.838398646   
5.396236051   0.790033383   -0.852573543   
4.931657033   0.90692464   -0.832548907   
4.623181912   1.027490569   -0.834826102   
4.4903136   0.487660443   -0.833618251   
4.282794337   0.624272055   -0.840974684   
4.085207931   0.748463222   -0.848527872   
3.848245409   0.855474332   -0.846282929   
3.760229715   0.403989283   -0.844447006   
3.576742594   0.518614935   -0.84230152   
3.402412937   0.622998028   -0.842057194   
3.301118306   0.732758423   -0.859537072   
3.199261003   0.339823511   -0.847453766   
3.038801299   0.438178791   -0.83974718   
2.935271539   0.536668025   -0.847686478   
2.832074049   0.629162039   -0.856817511   
13.5609995   2.470419108   -0.757865484   
11.7854698   2.590859845   -0.778850433   
9.549404731   1.379392035   -0.792404703   
8.596888135   1.560987433   -0.799937765   
7.854803138   1.723887346   -0.815574871   
7.465772676   0.796728387   -0.821747314   
6.90376285   0.993175491   -0.829600042   
6.35425295   1.151831555   -0.830586376   
5.919684924   1.297239342   -0.839299206   
5.667083583   0.601875983   -0.83636583   
5.405480646   0.774455075   -0.853654712   
4.942182375   0.893193874   -0.833859255   
4.645552356   1.017516147   -0.83829807   
4.488854945   0.473572552   -0.833073763   
4.291492223   0.612099978   -0.842309888   
4.07880688   0.734363968   -0.846726324   
3.855627158   0.844710293   -0.847332387   
3.756597799   0.391944782   -0.843357373   
3.548425169   0.503398648   -0.835265368   
3.405264435   0.612728689   -0.842293705   
3.27873424   0.717242232   -0.853131778   
3.217602948   0.331792145   -0.852038734   
3.064009084   0.432222148   -0.846342731   
2.948265557   0.529701482   -0.850965689   
2.84710713   0.623341994   -0.86078295   
11.77970897   2.551732707   -0.777948675   
9.564447011   1.351622322   -0.793305091   
8.640851448   1.541601324   -0.803584675   
7.869779453   1.701884013   -0.816583859   
7.460271721   0.773000365   -0.820876967   
6.906777412   0.971990406   -0.829600042   
6.3606863   1.132853257   -0.830969039   
5.908145367   1.275726777   -0.837104265   
5.680713787   0.585704436   -0.838108253   
5.401960738   0.757044956   -0.852728038   
4.950726875   0.879062038   -0.834842014   
4.642876379   1.002012499   -0.83725648   
4.489308357   0.45969852   -0.832892267   
4.258349498   0.594048396   -0.835443252   
4.05692095   0.71758072   -0.841722036   
3.863934842   0.834115292   -0.848591773   
3.730594531   0.377665489   -0.837255586   
3.580822157   0.496792567   -0.842528495   
3.429134357   0.606168668   -0.847733941   
3.243969958   0.699215666   -0.843523926   
3.21090801   0.321149222   -0.85000097   
3.094941932   0.426905701   -0.854521205   
2.940403817   0.518981876   -0.848232994   
2.828381465   0.610154984   -0.85455158   
11.80797661   2.519954882   -0.779301283   
9.575459504   1.323227671   -0.79387807   
8.655349516   1.516803357   -0.804496389   
7.855502228   1.673585653   -0.814565883   
7.470521139   0.750904284   -0.821747315   
6.897922023   0.949171755   -0.828182703   
6.382694531   1.116581015   -0.833392802   
5.924626607   1.260274149   -0.838887637   
5.666732219   0.566698236   -0.835785043   
5.40327877   0.740334311   -0.852573543   
4.952428703   0.86369979   -0.834678221   
4.657488062   0.990221321   -0.839339603   
4.494611631   0.446312044   -0.83361825   
4.279604775   0.583634031   -0.839258068   
4.062964734   0.705801587   -0.842522707   
3.837785476   0.816155652   -0.842295019   
3.729793001   0.366027746   -0.836819756   
3.5881198   0.486589653   -0.843890342   
3.397472222   0.58982854   -0.839455331   
3.266956761   0.69368866   -0.848943776   
3.208028173   0.310923638   -0.848982088   
3.049396932   0.411093956   -0.841593912   
2.938191073   0.509301238   -0.847139906   
2.830240037   0.601474786   -0.85455158   
11.79709731   2.479816253   -0.77807748   
9.595276759   1.295978812   -0.795187644   
8.65603595   1.489566372   -0.804131667   
7.85378436   1.648047281   -0.813859569   
7.48861974   0.729523659   -0.823488127   
6.901785748   0.928137142   -0.828300839   
6.391955423   1.098001482   -0.834158244   
5.91295341   1.238841683   -0.836692695   
5.686170219   0.551028067   -0.838398647   
5.399649091   0.722967074   -0.851646869   
4.966723264   0.850499939   -0.836643684   
4.661468113   0.976129458   -0.839513231   
4.509664267   0.43383903   -0.836159198   
4.294024534   0.572187201   -0.84173768   
4.068008048   0.69382748   -0.843123221   
3.839314519   0.804177209   -0.842085093   
3.727983616   0.354306182   -0.836165954   
3.563528174   0.47212552   -0.83776203   
3.448114245   0.587728615   -0.851518479   
3.231123462   0.675726801   -0.83908952   
3.238813444   0.30388039   -0.856878394   
3.037255249   0.399973486   -0.837900389   
2.935946528   0.499639069   -0.846046817   
2.828317184   0.592002964   -0.853418557   
11.80269505   2.443206983   -0.777948674   
9.596243173   1.26614366   -0.794942132   
8.670385154   1.464661721   -0.805043381   
7.855880657   1.623340444   -0.813556838   
7.481915622   0.70570534   -0.822508942   
6.906569727   0.907217037   -0.828537052   
6.39627194   1.078550887   -0.834285799   
5.907995449   1.218893895   -0.835458045   
5.697684576   0.534504672   -0.839850675   
5.408699418   0.707294581   -0.852728037   
4.96541804   0.834604168   -0.835988512   
4.652866745   0.95943703   -0.83743005   
4.514890673   0.42036622   -0.836885183   
4.304520819   0.560150708   -0.843454354   
4.099107107   0.686196584   -0.849128389   
3.833145424   0.790616965   -0.840196101   
3.729053077   0.342867216   -0.836165954   
3.594901189   0.465063987   -0.844798239   
3.439359686   0.575383657   -0.848916616   
3.242673859   0.667765509   -0.84155304   
3.20698635   0.290971544   -0.848217898   
3.113090417   0.400247576   -0.858478536   
2.938414234   0.490787811   -0.846320101   
2.840452577   0.585452644   -0.856534271   
11.77297867   2.399412541   -0.77550107   
9.607990364   1.237715599   -0.795596948   
8.692521542   1.44098599   -0.806684476   
7.861798748   1.599429613   -0.813657748   
7.473155826   0.681754412   -0.821312141   
6.893561917   0.884002815   -0.826647288   
6.404443636   1.059731974   -0.834923629   
5.920443415   1.20253721   -0.836692695   
5.699297846   0.517021894   -0.839850676   
5.41476422   0.691198004   -0.85334584   
4.966981889   0.819206027   -0.835824718   
4.646136896   0.943198471   -0.835694123   
4.500488029   0.405102151   -0.833981243   
4.305245225   0.54681829   -0.843263619   
4.07315587   0.669012363   -0.843323376   
3.839385699   0.779631619   -0.841035634   
3.726199063   0.331079512   -0.835294296   
3.521911411   0.444639865   -0.827321262   
3.451655502   0.566560307   -0.851518478   
3.271303279   0.663205893   -0.848451026   
3.197267501   0.280202629   -0.845416003   
3.05592251   0.383370814   -0.8423854   
2.927565694   0.479748276   -0.842767606   
2.83941548   0.576163344   -0.855684545   
11.82431358   2.372115038   -0.778399583   
9.62064208   1.209351614   -0.796333602   
8.708695992   1.416229023   -0.807778518   
7.85691404   1.573348977   -0.812648761   
7.469270703   0.658300239   -0.82065935   
6.935654032   0.867780811   -0.831371671   
6.41843365   1.041826433   -0.836326841   
5.930904339   1.185727215   -0.837652986   
5.678187879   0.497547851   -0.836511028   
5.412937797   0.674094106   -0.852728039   
4.958759552   0.802230676   -0.834023047   
4.685706435   0.936272583   -0.842290749   
4.497790736   0.390952335   -0.833255258   
4.299109318   0.532641809   -0.841737683   
4.071319656   0.655889645   -0.842522704   
3.840800781   0.767657232   -0.840825766   
3.749562214   0.321564176   -0.840306508   
3.653750067   0.449900571   -0.85796276   
3.434192073   0.552879401   -0.846787837   
3.312290561   0.66094234   -0.858551628   
3.22316498   0.272510386   -0.852038733   
3.085807345   0.377507459   -0.850300063   
2.946119083   0.473512047   -0.847686477   
2.837407913   0.566698065   -0.854551579   
11.82566113   2.334667619   -0.778013107   
9.646070613   1.182498069   -0.798134319   
8.727750972   1.391856969   -0.809146087   
7.895868256   1.555969344   -0.816180276   
7.468283764   0.635129013   -0.820332955   
6.927441217   0.845175564   -0.830072469   
6.432374025   1.02384506   -0.837730112   
5.945205175   1.169629173   -0.839162056   
5.669828499   0.479291681   -0.835058998   
5.427730534   0.659032375   -0.854735881   
4.956325963   0.786240814   -0.83320408   
4.671162997   0.918472576   -0.839166034   
4.500928928   0.377315748   -0.83361825   
4.277333576   0.516624843   -0.837159925   
4.052022075   0.640032966   -0.838118935   
3.841219196   0.755492857   -0.840405971   
3.750531127   0.310059176   -0.840306508   
3.625137246   0.435091189   -0.85092655   
3.432992768   0.541886346   -0.846078242   
3.261996816   0.640506734   -0.845002062   
3.228805154   0.263013133   -0.853312308   
3.066837511   0.365640533   -0.844759811   
2.946607882   0.464321523   -0.847413193   
2.842897317   0.55873014   -0.855684545   
11.83472719   2.298756602   -0.778141912   
9.658560135   1.15396289   -0.798870974   
8.741819623   1.36661217   -0.810057801   
7.906464438   1.532874015   -0.81678568   
7.479114248   0.612944423   -0.821312141   
6.926057149   0.823449593   -0.829600042   
6.461944596   1.008234386   -0.841174368   
5.947792925   1.15119585   -0.839024846   
5.663383104   0.461252113   -0.833897364   
5.415990575   0.640752161   -0.852573543   
4.959689229   0.771182906   -0.833367872   
4.680726949   0.90544663   -0.840381193   
4.51382793   0.364455032   -0.835796205   
4.28767276   0.504532178   -0.838876541   
4.069458534   0.629996778   -0.841321673   
3.873276396   0.749462543   -0.846912593   
3.745627494   0.298086692   -0.838998962   
3.597435833   0.420574749   -0.844117317   
3.434639152   0.531351565   -0.846078242   
3.26204316   0.63012842   -0.844509311   
3.192962571   0.250234993   -0.843632931   
3.056447093   0.35489487   -0.84159391   
2.926153189   0.451902458   -0.841127943   
2.854955766   0.552008331   -0.858800258   
11.83780366   2.261688332   -0.777884301   
9.671954185   1.125477348   -0.799689523   
8.76565815   1.342802031   -0.811881226   
7.906243517   1.507678249   -0.816281186   
7.49978805   0.591480865   -0.823379289   
6.923619232   0.801625801   -0.82900948   
6.464026889   0.98825467   -0.841046814   
5.95129662   1.132942802   -0.839024845   
5.662798954   0.443720371   -0.83360697   
5.421856829   0.624585394   -0.853191403   
4.962032008   0.755963151   -0.833367873   
4.686385538   0.891634291   -0.84090202   
4.513944312   0.350528963   -0.835614709   
4.301879041   0.492827878   -0.841356213   
4.068466128   0.617068127   -0.840721156   
3.897648576   0.741780249   -0.85174015   
3.75041695   0.28689165   -0.839870622   
3.592903158   0.408875265   -0.842755469   
3.43337127   0.520374909   -0.84536865   
3.340132877   0.63458948   -0.864217825   
3.213965345   0.241962474   -0.84898209   
3.057521668   0.34551616   -0.841593912   
2.933232417   0.443786427   -0.842767605   
2.873594942   0.546471902   -0.863898663   
11.84272496   2.224991305   -0.777755436   
9.665458847   1.094677401   -0.798870973   
8.758903241   1.314277615   -0.810878377   
7.928433415   1.486715749   -0.818097341   
7.503549838   0.56861933   -0.823596906   
6.925058918   0.780269469   -0.828891402   
6.455257754   0.966656063   -0.839516047   
5.941113603   1.11212761   -0.837104264   
5.673999796   0.427087667   -0.835058999   
5.463021862   0.612350668   -0.859369427   
4.964328004   0.740736331   -0.833367874   
4.688130661   0.877071369   -0.840728391   
4.523824365   0.337336884   -0.837248174   
4.294589926   0.478648951   -0.839639537   
4.067432651   0.604151543   -0.840120639   
3.87588001   0.725322801   -0.846492855   
3.773666385   0.277027626   -0.844882836   
3.603820657   0.398921967   -0.845025215   
3.420535007   0.507699247   -0.841820623   
3.316341243   0.61953379   -0.857566244   
3.206011876   0.231474299   -0.846689576   
3.072949204   0.337714741   -0.845551243   
2.917452221   0.432247655   -0.837848731   
2.871487073   0.536948171   -0.862765696   
11.86715887   2.191910395   -0.778914865   
9.647968089   1.062727483   -0.797152095   
8.773732326   1.288991731   -0.811881226   
7.94567703   1.464729382   -0.81940906   
7.503276121   0.545451892   -0.823379289   
6.933342609   0.75966896   -0.829600042   
6.452304555   0.945983857   -0.838750604   
5.949368867   1.094791564   -0.837790196   
5.668375401   0.409179437   -0.834042619   
5.449159843   0.593874775   -0.856898218   
4.964625045   0.725217299   -0.833040287   
4.690799353   0.862684239   -0.84072839   
4.496392341   0.321422944   -0.831984785   
4.300918272   0.465999813   -0.840593215   
4.071206107   0.591951911   -0.840521003   
3.841546711   0.70670625   -0.838516979   
3.768657201   0.265038053   -0.843575289   
3.611805545   0.388592981   -0.846614034   
3.440345564   0.499857129   -0.846314754   
3.313460025   0.60848122   -0.856334453   
3.202848167   0.221370584   -0.845670695   
3.090275906   0.330026779   -0.850036253   
2.953035883   0.428265193   -0.847686479   
2.851426186   0.524148162   -0.856251027   
11.87382816   2.155492121   -0.778914865   
9.628390183   1.030683065   -0.795269541   
8.798344639   1.265044412   -0.813795845   
7.975585869   1.444956864   -0.822032439   
7.499955861   0.522084462   -0.822835337   
6.94847746   0.739760795   -0.831135458   
6.462049008   0.927170033   -0.8396436   
5.960497499   1.077944286   -0.838887637   
5.674539337   0.392128215   -0.834768604   
5.422463231   0.574137322   -0.852419107   
4.964873396   0.709703415   -0.8327127   
4.69245518   0.84811384   -0.840554823   
4.489508616   0.307089847   -0.830532816   
4.274992347   0.449925672   -0.835252516   
4.070092875   0.579044849   -0.839920485   
3.857166323   0.697352451   -0.841455428   
3.76068871   0.252885408   -0.841613999   
3.633322054   0.379635704   -0.8513805   
3.4505206   0.490530753   -0.848443535   
3.32294144   0.599689822   -0.858305282   
3.229564913   0.213263733   -0.852548175   
3.082638913   0.319649033   -0.847661842   
2.890525234   0.410149025   -0.829377303   
2.841695637   0.513351713   -0.852852074   
11.88824458   2.120455494   -0.779430148   
8.813032501   1.239571297   -0.814798753   
7.956473415   1.416296711   -0.81961088   
7.496563091   0.498742522   -0.822291326   
6.946763234   0.718031319   -0.830663031   
6.47959638   0.909408191   -0.841557089   
5.96865252   1.060519092   -0.839573566   
5.622404172   0.371197423   -0.826927674   
5.396680196   0.554670381   -0.848094492   
4.969958256   0.694877862   -0.83320408   
4.695035055   0.833713619   -0.840554822   
4.487485723   0.293122489   -0.82998827   
4.279282587   0.437107313   -0.835824723   
4.086406548   0.568580583   -0.842923069   
3.8544746   0.684660563   -0.840405971   
3.746837186   0.240409202   -0.838345217   
3.630593953   0.368094085   -0.850472602   
3.438536225   0.478069188   -0.845132081   
3.317131318   0.588138735   -0.856334454   
3.188704467   0.200741997   -0.841595168   
3.07688702   0.309514319   -0.845815053   
2.927023774   0.40617112   -0.839488336   
2.846090099   0.505133881   -0.853701798   
11.88977921   2.083111701   -0.779108045   
8.782263916   1.207778734   -0.811607758   
7.957841546   1.391365911   -0.81930815   
7.495081455   0.475552219   -0.82196493   
6.920280142   0.6938427   -0.827237851   
6.481373272   0.889389912   -0.841429535   
5.980660331   1.043735251   -0.840808276   
5.667951446   0.356743154   -0.833461773   
5.413103405   0.53958095   -0.850411264   
4.967179543   0.678958994   -0.832385112   
4.677197179   0.815752145   -0.836909284   
4.496215939   0.279842376   -0.831440298   
4.28060351   0.423976616   -0.835824723   
4.085219284   0.55564488   -0.842322553   
3.875820168   0.676192795   -0.844603804   
3.746583094   0.228853425   -0.838127245   
3.596813915   0.35352433   -0.842301521   
3.435172757   0.466863413   -0.843949462   
3.32178459   0.578457981   -0.857073494   
3.233708498   0.193616862   -0.853312308   
3.082622298   0.300541106   -0.847134222   
2.945413862   0.399516527   -0.84440721   
2.850460862   0.496893934   -0.85455158   
11.89808154   2.046963103   -0.77923691   
8.768163136   1.178441836   -0.809966664   
7.96501417   1.36745006   -0.819610881   
7.496505157   0.452555393   -0.82196493   
6.932259653   0.673568636   -0.828418917   
6.474240896   0.868182947   -0.840153875   
5.985786852   1.025716523   -0.841082636   
5.683834167   0.34023926   -0.835639846   
5.403915649   0.521926451   -0.848712294   
4.967283736   0.663455523   -0.832057526   
4.686472679   0.802562499   -0.838124444   
4.503924727   0.266453418   -0.832710769   
4.301427022   0.412717045   -0.839639539   
4.099530598   0.544786825   -0.844924773   
3.873058446   0.66347337   -0.843554349   
3.711217519   0.215266928   -0.830064167   
3.601759668   0.342856966   -0.843209419   
3.410583287   0.452869158   -0.837563063   
3.313990423   0.566630741   -0.854609972   
3.238149115   0.183914413   -0.854331189   
3.044157318   0.287365601   -0.836317469   
2.963790513   0.392752862   -0.849326083   
2.861424992   0.489764476   -0.857383996   
11.92300113   2.013608057   -0.780460712   
8.76877513   1.151147062   -0.809693138   
7.966228667   1.342511274   -0.819308149   
7.488926621   0.429042595   -0.820985746   
6.950111856   0.653785611   -0.830308683   
6.475890388   0.848187336   -0.840026321   
5.985975195   1.006854627   -0.840671067   
5.6927536   0.323248627   -0.836801422   
5.413361215   0.50608073   -0.849947898   
4.966361249   0.647830166   -0.831566145   
4.68405655   0.787364589   -0.837256479   
4.509630276   0.252909632   -0.83361825   
4.289966223   0.398338645   -0.837159925   
4.107012115   0.532963593   -0.846125805   
3.895323454   0.654992486   -0.847962051   
3.729401418   0.204843534   -0.833986749   
3.62509983   0.333859556   -0.848429831   
3.444717673   0.446651377   -0.845605161   
3.313801488   0.556140067   -0.854117221   
3.232904388   0.173667808   -0.852802867   
3.066157361   0.279954438   -0.84212159   
2.953533724   0.382176943   -0.846046816   
2.862914034   0.480983423   -0.857383995   
11.87300622   1.967719104   -0.776789304   
8.75053533   1.121454457   -0.807687383   
7.985033164   1.320499785   -0.820821689   
7.481274146   0.40558057   -0.820006561   
6.972852082   0.634349141   -0.83278901   
6.483381569   0.828944535   -0.840664151   
5.969489445   0.985259017   -0.837927346   
5.687790359   0.305463633   -0.835930239   
5.405048371   0.48858093   -0.848403363   
4.952667583   0.630596915   -0.828945506   
4.651469443   0.76722062   -0.831006992   
4.489763004   0.237979997   -0.829806774   
4.294101286   0.385438628   -0.83773213   
4.054196083   0.513467099   -0.834916197   
3.887667814   0.641447044   -0.845863134   
3.771922554   0.195573969   -0.843357375   
3.633867548   0.323427052   -0.850245627   
3.45378323   0.43705687   -0.84749743   
3.284890662   0.540931615   -0.846233851   
3.209277521   0.162525849   -0.846434884   
3.072766933   0.271054806   -0.843704512   
2.940376965   0.371306096   -0.841947745   
2.863429995   0.472041898   -0.857100754   
11.93513142   1.940412008   -0.780460712   
8.756898861   1.094973645   -0.807960849   
7.977262052   1.2940841   -0.81961088   
7.471562659   0.382067987   -0.818809818   
6.996527352   0.614866245   -0.835387414   
6.513451902   0.812487474   -0.844236019   
5.963683844   0.96551549   -0.836692695   
5.685736743   0.287862208   -0.835494649   
5.401600655   0.471566529   -0.847631125   
4.981990302   0.618804076   -0.833531667   
