X     Y     Z
0.202811728   -4.219901108   -0.462389272   
0.355132915   -4.188342522   -0.499956853   
0.496839708   -4.084999397   -0.529273989   
0.65182157   -4.105901797   -0.575766389   
0.673856552   -4.247575209   -0.758096386   
0.664320662   -4.186050806   -0.909880072   
0.145596624   -3.053636228   0.685417097   
0.258717334   -3.047945279   0.653818418   
0.511435115   -4.185364253   0.858468941   
0.146003556   -3.062171094   0.568959455   
0.256573851   -3.027709273   0.53326529   
0.374578816   -3.072071146   0.512677654   
0.570110813   -3.587064429   0.566496756   
0.147818586   -3.096829721   0.457986544   
0.257044834   -3.045268786   0.421296293   
0.371520557   -3.060325395   0.395024407   
0.551682152   -3.48287657   0.41811386   
0.150080718   -3.144221655   0.348187845   
0.257627543   -3.063655913   0.309420144   
0.371283937   -3.06777442   0.28198798   
0.554632571   -3.512611405   0.290804975   
0.146006556   -3.087151493   0.227990063   
0.255714259   -3.045996873   0.196168686   
0.388901237   -3.222770108   0.177509932   
0.546618953   -3.473664557   0.158941244   
0.143501466   -3.054518786   0.113677499   
0.255708742   -3.06518261   0.084841222   
0.407165879   -3.386050978   0.061613494   
0.527685659   -3.35563526   0.029466182   
0.142247422   -3.051685791   0.002079472   
0.288654322   -3.468870782   -0.031227607   
0.393965612   -3.286922348   -0.060442736   
0.516015572   -3.29453639   -0.093030182   
0.157847971   -3.417143994   -0.123043289   
0.27254439   -3.293354927   -0.149657037   
0.395380384   -3.311442762   -0.183358977   
0.521141986   -3.334498866   -0.21783593   
0.151655309   -3.320804011   -0.241144011   
0.294633474   -3.580802523   -0.295074783   
0.477725955   -4.020785008   -0.370702873   
0.664785354   -4.263347808   -0.437603402   
0.172352109   -3.831223948   -0.419740659   
0.33993664   -4.160710999   -0.496531672   
0.486055684   -4.101278564   -0.531187478   
0.641506332   -4.12256371   -0.577824179   
0.661275948   -4.252542193   -0.758617212   
0.662295254   -4.25762861   -0.924992291   
0.133575141   -2.994605263   0.672071915   
0.250321819   -3.060420587   0.656326643   
0.49893984   -4.189832567   0.859067489   
0.13577582   -3.043942211   0.565492432   
0.24744408   -3.030445454   0.533610996   
0.365617696   -3.077124528   0.51333134   
0.557734314   -3.58000999   0.565109814   
0.13977339   -3.1298819   0.462809006   
0.246576787   -3.032219922   0.419384415   
0.36049866   -3.047660644   0.39324503   
0.542670078   -3.495346823   0.41940904   
0.139591167   -3.125801309   0.34609894   
0.247504166   -3.055506291   0.308518921   
0.360937438   -3.060987114   0.281260954   
0.543548596   -3.512326703   0.290641957   
0.137283612   -3.104522197   0.229240746   
0.246931092   -3.053729933   0.196617002   
0.36129142   -3.073212765   0.169210477   
0.534436715   -3.465452034   0.158489709   
0.134611821   -3.065926504   0.114086141   
0.247024112   -3.074920232   0.085089371   
0.401544934   -3.427999186   0.062354082   
0.517083637   -3.355261918   0.029448833   
0.132840821   -3.051108838   0.002078792   
0.276013986   -3.444820998   -0.031003334   
0.381560785   -3.268253761   -0.060077635   
0.498474739   -3.247689848   -0.091663731   
0.148009351   -3.432588499   -0.123582472   
0.261249223   -3.279238144   -0.148978423   
0.385103837   -3.311648385   -0.183304081   
0.511664738   -3.341014009   -0.218157988   
0.143121834   -3.360116165   -0.243965694   
0.284118435   -3.587650903   -0.295565895   
0.46527364   -4.021242806   -0.370611709   
0.64914798   -4.248647645   -0.435888098   
0.145070361   -3.461274061   -0.379159194   
0.327092328   -4.160744105   -0.496413593   
0.47585869   -4.123441385   -0.533866349   
0.632140097   -4.146055788   -0.580842261   
0.654752996   -4.297388442   -0.766255428   
0.658069037   -4.317634462   -0.9375858   
0.1247921   -3.00475044   0.674259645   
0.238859699   -3.034851867   0.650683095   
0.48608323   -4.19134348   0.859067488   
0.625273506   -4.075609595   0.799023051   
0.127007686   -3.058097442   0.568047086   
0.238377082   -3.034136218   0.534129558   
0.356515658   -3.081171737   0.513821646   
0.543915479   -3.563146242   0.562181795   
0.145912493   -3.508857229   0.518778661   
0.239436253   -3.060615323   0.423208172   
0.351600849   -3.052693665   0.393753427   
0.531197262   -3.492086411   0.418820324   
0.130083279   -3.128201075   0.346318822   
0.238437992   -3.060219082   0.308919464   
0.350863257   -3.056143838   0.28071572   
0.533069167   -3.51594845   0.290804975   
0.127840424   -3.10692162   0.22938788   
0.23624574   -3.037559119   0.195528249   
0.351974791   -3.075298906   0.169265075   
0.527831601   -3.493745174   0.159708862   
0.124838135   -3.05733875   0.113751796   
0.236434393   -3.060713928   0.084675782   
0.392045561   -3.43815544   0.062516647   
0.506787422   -3.356832368   0.029448833   
0.123802982   -3.05949545   0.002084237   
0.265060096   -3.440666506   -0.030958481   
0.371870815   -3.272389406   -0.060132397   
0.489846205   -3.258100445   -0.091914711   
0.137557595   -3.435023673   -0.123654371   
0.251568829   -3.285004492   -0.149204623   
0.375166604   -3.314798685   -0.183413888   
0.50111619   -3.340594471   -0.218029168   
0.132733702   -3.358546185   -0.243820975   
0.273261613   -3.590493108   -0.295729599   
0.454048686   -4.032547185   -0.371523421   
0.635079498   -4.243731661   -0.435181783   
0.134412064   -3.460709389   -0.379050414   
0.313802315   -4.154797162   -0.495586819   
0.46719048   -4.160365138   -0.538458769   
0.623952393   -4.178345466   -0.585094992   
0.647961019   -4.342234158   -0.773893702   
0.116360552   -3.025595312   0.67885391   
0.230137684   -3.043371464   0.652355245   
0.482673338   -4.276554516   0.876224865   
0.608827565   -4.051296507   0.793886503   
0.117738334   -3.061420319   0.568594497   
0.22877083   -3.030924483   0.533438142   
0.339444281   -3.014606229   0.502545043   
0.532835211   -3.563820991   0.562027658   
0.13358594   -3.468758464   0.512787085   
0.229822594   -3.058371994   0.422798508   
0.340355671   -3.037000919   0.39159273   
0.521066478   -3.497628607   0.41929132   
0.120294233   -3.123619441   0.345769118   
0.230458921   -3.079787944   0.310822044   
0.340822198   -3.051267628   0.280170457   
0.523158161   -3.523482606   0.291294001   
0.118687353   -3.117264888   0.230123565   
0.227371496   -3.044240701   0.19591252   
0.341875267   -3.070410081   0.168937473   
0.513601655   -3.471630869   0.158625176   
0.115344635   -3.05471144   0.11364035   
0.226821345   -3.058434252   0.084593066   
0.381936503   -3.443317035   0.062588902   
0.497363853   -3.364306742   0.029500877   
0.113967601   -3.047869187   0.002076069   
0.25597799   -3.461408136   -0.031137898   
0.362708267   -3.281465056   -0.060278436   
0.47926583   -3.255632113   -0.091803168   
0.126981515   -3.43443091   -0.123618415   
0.240757158   -3.275798129   -0.14875221   
0.365104448   -3.316926617   -0.183468784   
0.490720022   -3.341128809   -0.217964751   
0.122320218   -3.355947643   -0.243603925   
0.262172263   -3.590320721   -0.295647733   
0.440374226   -4.022041953   -0.370429377   
0.622489597   -4.248613209   -0.435484485   
0.123687526   -3.458125283   -0.37872402   
0.300767097   -4.151778445   -0.495114391   
0.45377849   -4.15586267   -0.537693383   
0.618581517   -4.231206803   -0.592228597   
0.637341021   -4.362716778   -0.777192045   
0.107181131   -3.028863437   0.679510216   
0.22037518   -3.038211265   0.651101106   
0.510283708   -4.649127596   0.952236226   
0.59596675   -4.050231554   0.793315731   
0.108484563   -3.065697543   0.569324415   
0.219897717   -3.037506461   0.534475265   
0.332341609   -3.035247278   0.505813585   
0.525476626   -3.589879876   0.565880324   
0.111661537   -3.15080856   0.46573169   
0.220723352   -3.063014872   0.423344755   
0.330392027   -3.032114457   0.390830148   
0.511909898   -3.510019809   0.420586499   
0.111590583   -3.148806483   0.348517667   
0.221436384   -3.086435203   0.31142286   
0.329631731   -3.035468236   0.278625564   
0.507185033   -3.489563839   0.288359873   
0.109053386   -3.115620923   0.229976431   
0.218458479   -3.050896269   0.196296777   
0.332346315   -3.070451723   0.168882861   
0.504666418   -3.485054247   0.159167012   
0.105487376   -3.041069171   0.113120255   
0.217720614   -3.063104217   0.084703357   
0.371477959   -3.445466661   0.062606963   
0.487039982   -3.365816804   0.029500877   
0.104753532   -3.052202167   0.002078792   
0.244650473   -3.4522027   -0.03104819   
0.35146442   -3.271627171   -0.060077635   
0.469417992   -3.2580766   -0.091831056   
0.115970201   -3.420821426   -0.123115172   
0.230776194   -3.277517751   -0.148797449   
0.354289313   -3.3120741   -0.183139393   
0.480467229   -3.342618454   -0.217964751   
0.112655883   -3.375246633   -0.244978586   
0.250530271   -3.582160092   -0.294911079   
0.429402246   -4.036247343   -0.371614586   
0.609169685   -4.248533703   -0.435282695   
0.288096911   -4.153672548   -0.49523247   
0.437364219   -4.122715125   -0.53322852   
0.600968166   -4.20072602   -0.587701503   
0.624928971   -4.371475825   -0.778407205   
0.097982752   -3.03210385   0.680166524   
0.210375504   -3.029117345   0.649010946   
0.502668955   -4.713030577   0.965004493   
0.585637067   -4.066616398   0.79616942   
0.099015109   -3.064050499   0.568959456   
0.210577743   -3.038166794   0.534475265   
0.321566847   -3.0225185   0.503525601   
0.515581407   -3.599299717   0.567113187   
0.101514413   -3.136305153   0.46353967   
0.211188784   -3.061701065   0.423071617   
0.319521772   -3.018318016   0.388923662   
0.500297097   -3.505675415   0.419880035   
0.102572747   -3.169002442   0.350716513   
0.212102615   -3.089085108   0.311623131   
0.320839875   -3.041416878   0.27907993   
0.497178471   -3.496037194   0.28876739   
0.099844396   -3.126905421   0.230785683   
0.209029223   -3.050556612   0.196232732   
0.32135866   -3.056561346   0.168063848   
0.494953004   -3.493509902   0.159483095   
0.095714909   -3.027395172   0.112600167   
0.206762419   -3.040819507   0.084069186   
0.360593275   -3.443607012   0.062552774   
0.476711487   -3.367295122   0.029500877   
0.095795058   -3.065503003   0.00208764   
0.235004876   -3.466904427   -0.031173781   
0.342670505   -3.284623322   -0.060296697   
0.457327433   -3.244654058   -0.09141275   
0.104828014   -3.400184534   -0.122360309   
0.221927774   -3.29615124   -0.149611797   
0.344023197   -3.31215229   -0.183084497   
0.472850055   -3.362852769   -0.219188553   
0.102541944   -3.38355188   -0.245557407   
0.239273245   -3.578934224   -0.294583671   
0.417631056   -4.043488971   -0.372161637   
0.598896242   -4.270087305   -0.437300698   
0.275746301   -4.160481857   -0.495941111   
0.425729911   -4.13390386   -0.53450418   
0.588489479   -4.205492992   -0.588113073   
0.713933647   -5.10584412   -0.908778239   
0.089079259   -3.046045152   0.683229367   
0.201340356   -3.033651616   0.649847021   
0.481444763   -4.649247001   0.951637677   
0.574664627   -4.079087305   0.798262079   
0.089413079   -3.057460279   0.567682128   
0.200930352   -3.033884428   0.533610996   
0.310873323   -3.009752008   0.501237558   
0.502068625   -3.583251636   0.564339247   
0.092094674   -3.143523789   0.464562606   
0.201208381   -3.053438274   0.421842569   
0.311679698   -3.033097911   0.390703041   
0.491735951   -3.522929794   0.421763959   
0.091889387   -3.136516451   0.347088408   
0.202819771   -3.092699864   0.311923539   
0.309681596   -3.02455479   0.277444171   
0.483841758   -3.478789771   0.287218803   
0.090998727   -3.153115852   0.232698471   
0.199995093   -3.056162612   0.196552957   
0.312486551   -3.062499499   0.168336852   
0.483684345   -3.49105382   0.159302478   
0.08636951   -3.025676652   0.112525862   
0.197108574   -3.036451932   0.08393132   
0.349117043   -3.435744673   0.06239021   
0.46610427   -3.366760917   0.029483531   
0.086502448   -3.06978087   0.002090363   
0.22591705   -3.491557962   -0.03138908   
0.332289732   -3.282674893   -0.060241928   
0.445733128   -3.234158787   -0.091078115   
0.09500598   -3.422467496   -0.123151128   
0.210853528   -3.281862914   -0.148933169   
0.335161451   -3.326107127   -0.183798159   
0.46361809   -3.372196566   -0.219703835   
0.091482018   -3.3589253   -0.243748644   
0.228228668   -3.578656853   -0.294501833   
0.406018024   -4.052678446   -0.37289099   
0.573898684   -4.185165514   -0.428421484   
0.263043461   -4.162299126   -0.496059245   
0.413439587   -4.139137816   -0.535014453   
0.575181647   -4.20433474   -0.587701505   
0.738681191   -5.403660314   -0.961378027   
0.586662639   -4.237458285   0.994705982   
0.079478395   -3.036549853   0.681041639   
0.192032296   -3.034255027   0.649847021   
0.305967854   -3.045868721   0.62325286   
0.565496735   -4.105145151   0.803018173   
0.079981053   -3.055754498   0.56731717   
0.191559501   -3.033503739   0.533438143   
0.303998456   -3.034251009   0.5051599   
0.487184115   -3.556386693   0.55987015   
0.081957269   -3.125001768   0.461786042   
0.19078385   -3.037233488   0.419520998   
0.303651562   -3.046870926   0.392355341   
0.482402344   -3.535245053   0.423059167   
0.082005671   -3.126847567   0.345989   
0.193640865   -3.098272723   0.312424218   
0.300597702   -3.027472591   0.277625934   
0.472898158   -3.478282633   0.287055813   
0.081221828   -3.149392331   0.232404203   
0.190680079   -3.05775791   0.196617003   
0.302696228   -3.059469271   0.168118446   
0.473373847   -3.4954911   0.159437944   
0.076984662   -3.021931553   0.112377268   
0.187791944   -3.037042249   0.08393132   
0.341809491   -3.469635123   0.062986294   
0.456443439   -3.373129613   0.0295269   
0.076556975   -3.049038356   0.002076069   
0.214712009   -3.484250034   -0.031317316   
0.323388757   -3.295619493   -0.06046099   
0.437410003   -3.247399007   -0.09141275   
0.08398757   -3.401762852   -0.122396251   
0.200356986   -3.275514381   -0.148616489   
0.325052562   -3.32811359   -0.18385307   
0.448752069   -3.339975864   -0.217513886   
0.080983792   -3.351213302   -0.243169824   
0.217429574   -3.582324567   -0.294747375   
0.352011089   -3.625717339   -0.333504955   
0.56237745   -4.196767446   -0.429430501   
0.098955696   -4.213669167   -0.461301307   
0.250332039   -4.16407774   -0.496177381   
0.400643391   -4.139399754   -0.5348869   
0.556767673   -4.164843505   -0.581939703   
0.574443248   -4.245029274   0.996064847   
0.070116939   -3.034828378   0.680604082   
0.18260489   -3.032877604   0.649428955   
0.296336956   -3.04386716   0.622654368   
0.554340558   -4.117563013   0.805110832   
0.070696599   -3.059917347   0.568047088   
0.182133825   -3.032110683   0.533092435   
0.294497397   -3.033205561   0.504833029   
0.480072775   -3.586264847   0.564339247   
0.072255001   -3.120293684   0.461055379   
0.18229185   -3.051648765   0.421432877   
0.292681748   -3.031003946   0.390194642   
0.418794636   -3.141006524   0.37572551   
0.072366237   -3.125097013   0.345769117   
0.183957538   -3.095872597   0.31212381   
0.291117425   -3.026397803   0.27744417   
0.461043569   -3.470825081   0.286322259   
0.07160455   -3.151620907   0.232551338   
0.181593393   -3.063309502   0.196937229   
0.293594268   -3.063365313   0.168282254   
0.459896087   -3.476129643   0.158489709   
0.068272757   -3.047129974   0.113306005   
0.178356296   -3.03560837   0.083876178   
0.321951011   -3.374121717   0.061234163   
0.444913238   -3.365592036   0.029448833   
0.066893825   -3.035262175   0.002066539   
0.200982471   -3.432983421   -0.030850828   
0.312803493   -3.29161942   -0.060369713   
0.428618661   -3.257645372   -0.091663731   
0.073550712   -3.402004453   -0.122396251   
0.190248974   -3.275116515   -0.14857125   
0.314558494   -3.326112924   -0.183688367   
0.440061246   -3.353210106   -0.218286809   
0.070849286   -3.358426047   -0.243676284   
0.206266142   -3.579989829   -0.294501833   
0.340326747   -3.620831473   -0.332957934   
0.54084884   -4.132378663   -0.422670173   
0.085906144   -4.207990011   -0.460648518   
0.23732947   -4.1608605   -0.495704896   
0.386739219   -4.12777172   -0.53322852   
0.538216791   -4.122332415   -0.575766389   
0.56065102   -4.240978243   0.994705982   
0.060884067   -3.038931415   0.681479196   
0.173131955   -3.030494479   0.648801912   
0.28616951   -3.035981851   0.620858781   
0.54272943   -4.12703158   0.806632837   
0.061367653   -3.063068782   0.568594497   
0.17339099   -3.042488786   0.534821029   
0.283897749   -3.020343568   0.502545043   
0.464712935   -3.554410423   0.55909964   
0.062681733   -3.120500566   0.461055378   
0.174721823   -3.08384312   0.425802881   
0.283935232   -3.037813158   0.390957225   
0.404540178   -3.106826262   0.371486695   
0.06335711   -3.154122694   0.34895743   
0.174682543   -3.100396119   0.312524354   
0.282662036   -3.03620107   0.278262065   
0.413084667   -3.184601099   0.262604707   
0.061915583   -3.150828458   0.23247777   
0.172026437   -3.06086308   0.196745093   
0.280598382   -3.025476326   0.166152789   
0.449613261   -3.480496287   0.158625175   
0.058672822   -3.034336374   0.112823059   
0.168986773   -3.035143164   0.083848604   
0.287699484   -3.116236889   0.056537738   
0.433817621   -3.360990793   0.029396787   
0.057505593   -3.031454018   0.002063817   
0.171675713   -3.095117866   -0.027809704   
0.304534152   -3.312476367   -0.060734814   
0.420277966   -3.271833958   -0.092026261   
0.063391189   -3.417201793   -0.122935449   
0.180309904   -3.277679784   -0.14866173   
0.303534019   -3.318113381   -0.18319429   
0.427996298   -3.340686764   -0.217385065   
0.060293769   -3.344666756   -0.242663392   
0.195444743   -3.583591211   -0.294747374   
0.329036313   -3.619874953   -0.332775574   
0.526150986   -4.118228451   -0.421055781   
0.072788918   -4.196306494   -0.459342937   
0.224884048   -4.167518527   -0.496413594   
0.375057983   -4.13980431   -0.53463179   
0.52381398   -4.11020773   -0.573845807   
0.548011363   -4.245576018   0.995385355   
0.051560471   -3.039103831   0.681479195   
0.163780946   -3.030035101   0.648592881   
0.276587006   -3.033917955   0.620260289   
0.551317955   -4.294213504   0.838974198   
0.051919965   -3.060293327   0.568047086   
0.164162009   -3.044973522   0.535166736   
0.274808735   -3.023165419   0.502871858   
0.411152212   -3.221603755   0.506549205   
0.053309876   -3.132547756   0.462809007   
0.163139827   -3.044796062   0.420340354   
0.273989066   -3.031754884   0.390067536   
0.391876659   -3.083424864   0.368543061   
0.053883046   -3.16622778   0.350276749   
0.168927309   -3.171460569   0.319633997   
0.273345759   -3.037053835   0.278262064   
0.389418116   -3.076098583   0.253557823   
0.052017206   -3.137043605   0.231447802   
0.162952684   -3.067355662   0.197129364   
0.273633186   -3.052180389   0.167572423   
0.434809932   -3.449151848   0.157135089   
0.049769682   -3.059481587   0.113751796   
0.159516761   -3.032652571   0.083765887   
0.275471793   -3.087228389   0.055995842   
0.423129314   -3.359329458   0.029370766   
0.048141355   -3.027616516   0.002061094   
0.161865326   -3.089638307   -0.027755879   
0.300829165   -3.386096512   -0.062067439   
0.411481297   -3.283026545   -0.092305129   
0.052876128   -3.415381749   -0.122863551   
0.169579719   -3.265248172   -0.148073596   
0.292385754   -3.308088207   -0.182590405   
0.419106728   -3.352876427   -0.218093585   
0.049823356   -3.330874063   -0.241650471   
0.184551969   -3.586164746   -0.294911079   
0.317493613   -3.615907414   -0.332319718   
0.512898665   -4.114887147   -0.420551287   
0.059687436   -4.180607028   -0.457602185   
0.212601854   -4.178106138   -0.497594662   
0.364776362   -4.168601028   -0.538203658   
0.510223878   -4.103931886   -0.572748309   
0.057410422   -4.168944625   -0.611882936   
0.53620075   -4.256901421   0.997650214   
0.04193809   -3.017782758   0.67666618   
0.154533932   -3.031499948   0.648801914   
0.266761976   -3.028895471   0.619063249   
0.582070765   -4.646569361   0.907461902   
0.042462563   -3.055522742   0.567134718   
0.155519478   -3.059234188   0.537586744   
0.266050293   -3.029890855   0.503852471   
0.384053713   -3.084601875   0.484820153   
0.043740498   -3.135663992   0.463247399   
0.155796437   -3.084857208   0.425802881   
0.265462689   -3.0414744   0.391211438   
0.380704535   -3.070815682   0.366894606   
0.044155079   -3.165384327   0.350166808   
0.159944708   -3.186869751   0.321136034   
0.264199392   -3.039862556   0.2784438   
0.379490404   -3.073322274   0.253231787   
0.043106828   -3.190040011   0.235346959   
0.153341864   -3.06385419   0.196873183   
0.263062422   -3.039078537   0.166808008   
0.422763196   -3.438571491   0.156593253   
0.040027   -3.032640801   0.112748761   
0.150706407   -3.043111662   0.084041611   
0.265741603   -3.085070564   0.055941654   
0.404286643   -3.291136674   0.028763573   
0.038865362   -3.028750023   0.002061775   
0.152533444   -3.093116591   -0.02778279   
0.291635283   -3.400950029   -0.062323017   
0.40383258   -3.304118003   -0.092862864   
0.042422444   -3.417526586   -0.122935449   
0.161121303   -3.297682146   -0.149521303   
0.282744448   -3.314938989   -0.182919796   
0.407369424   -3.342259414   -0.217320648   
0.039782006   -3.345971004   -0.242735723   
0.172874557   -3.572777323   -0.29376515   
0.305810249   -3.609918532   -0.33168153   
0.497391313   -4.092737918   -0.418129698   
0.046616119   -4.158902247   -0.45520864   
0.200778432   -4.199567513   -0.500074987   
0.353570721   -4.188478472   -0.540627421   
0.497153998   -4.101544606   -0.572199588   
0.044598833   -4.167122305   -0.611592541   
0.524444605   -4.269160406   1.000141449   
0.032943606   -3.042290213   0.682135503   
0.144296924   -3.012423791   0.644621481   
0.257800085   -3.033605181   0.619861295   
0.568764888   -4.656129313   0.908983848   
0.033034919   -3.05072279   0.566222349   
0.146743981   -3.072486778   0.539833899   
0.256836744   -3.031675977   0.504015908   
0.373159654   -3.073995174   0.482970858   
0.035573282   -3.269326286   0.482975583   
0.163273663   -3.442536929   0.475102061   
0.256712826   -3.04919331   0.392101127   
0.369136838   -3.05422344   0.364775184   
0.034335468   -3.155566293   0.349067372   
0.157050017   -3.33344441   0.335856026   
0.255204692   -3.044628186   0.278807327   
0.36922604   -3.067545433   0.252661281   
0.035892393   -3.436474447   0.253518478   
0.143426296   -3.053345097   0.196168687   
0.252740748   -3.027930737   0.166152789   
0.416490832   -3.47556014   0.158218791   
0.031087223   -3.068722712   0.114086141   
0.141184042   -3.039565547   0.08393132   
0.255944481   -3.081885847   0.055869402   
0.405718485   -3.388670045   0.029604968   
0.02958287   -3.029854901   0.002062455   
0.142304179   -3.077587886   -0.027639257   
0.2812823   -3.402825207   -0.062341271   
0.391920395   -3.290452532   -0.092444559   
0.032021464   -3.426634418   -0.123258954   
0.154201666   -3.368016308   -0.152688172   
0.272409433   -3.313800578   -0.182810004   
0.397937499   -3.35043023   -0.217771527   
0.029358163   -3.328125151   -0.241433421   
0.161641924   -3.567317055   -0.293274037   
0.294004605   -3.601906878   -0.330860983   
0.482141714   -4.07152087   -0.415808992   
0.0338242   -4.155049746   -0.454773438   
0.187627132   -4.194212013   -0.499366291   
0.342809285   -4.215246653   -0.543944125   
0.484916841   -4.106001328   -0.572611156   
0.031685669   -4.150420247   -0.609124075   
0.512155108   -4.277519273   1.001726815   
0.023534116   -3.032619596   0.679947775   
0.135141837   -3.014806207   0.645039491   
0.247132275   -3.01777913   0.616469673   
0.555521823   -4.66662572   0.910696049   
0.023713429   -3.055725851   0.567134719   
0.137361013   -3.073906374   0.540006752   
0.247534471   -3.032449684   0.504015908   
0.359897077   -3.042745669   0.477885332   
0.026076234   -3.337677114   0.4930589   
0.15560841   -3.508339108   0.484115207   
0.246394674   -3.038102866   0.390575934   
0.356629433   -3.02871335   0.36159608   
0.024654164   -3.15565667   0.349067371   
0.149361376   -3.391563125   0.341663903   
0.246503811   -3.053337946   0.279534326   
0.359697154   -3.06767371   0.252579771   
0.025187431   -3.414628593   0.251899973   
0.13467082   -3.067728548   0.197065319   
0.243449995   -3.02869192   0.166152789   
0.386947671   -3.315085723   0.15085872   
0.021566514   -3.05381426   0.113528904   
0.131858124   -3.039984313   0.08393132   
0.24513342   -3.065713254   0.055562327   
0.396478552   -3.399831251   0.029691709   
0.020287267   -3.029931461   0.002062455   
0.131999134   -3.05802941   -0.027459839   
0.270127482   -3.39470204   -0.062176971   
0.38343612   -3.305540789   -0.092834977   
0.021464641   -3.419721217   -0.123007333   
0.145061582   -3.396419296   -0.15395492   
0.261296516   -3.302675978   -0.182151223   
0.387656642   -3.351635139   -0.217771527   
0.019130268   -3.325207377   -0.24121637   
0.148383557   -3.51302959   -0.288772217   
0.282640836   -3.598820922   -0.330496293   
0.467368909   -4.053213923   -0.413790987   
0.020985769   -4.137240671   -0.452815096   
0.175213263   -4.205681206   -0.500665492   
0.32964339   -4.213312065   -0.543561461   
0.018852817   -4.128731392   -0.605929624   
0.498352471   -4.273265257   1.000367945   
0.014143068   -3.01413793   0.675791066   
0.126136673   -3.021069074   0.646293632   
0.239874204   -3.043921613   0.621656825   
0.544028617   -4.692688421   0.915452143   
0.014499951   -3.090196215   0.573521357   
0.126946934   -3.050695143   0.535858151   
0.237302926   -3.021392542   0.502054737   
0.352143054   -3.057577425   0.48004284   
0.015836261   -3.33774149   0.4930589   
0.14423137   -3.493953218   0.482066774   
0.23838423   -3.05565552   0.392736632   
0.35231226   -3.073202918   0.366776857   
0.014887746   -3.137826765   0.347088408   
0.137937373   -3.367152031   0.339160508   
0.237135142   -3.054079728   0.279534325   
0.349605766   -3.062821391   0.252090745   
0.01463834   -3.397735863   0.250649289   
0.124037292   -3.038213633   0.195143978   
0.233926105   -3.026437797   0.16598898   
0.352416302   -3.101857113   0.141105508   
0.012149545   -3.041874576   0.113083106   
0.12216868   -3.031385353   0.083683164   
0.236646398   -3.078413842   0.055779086   
0.386610071   -3.405999466   0.029735081   
0.011002356   -3.032979413   0.002064498   
0.1222561   -3.04942744   -0.027379101   
0.260245157   -3.402493051   -0.062304755   
0.372059603   -3.295775312   -0.092528222   
0.010979397   -3.421769675   -0.123079231   
0.135076051   -3.407828501   -0.154452574   
0.250405855   -3.293505909   -0.181602249   
0.374693381   -3.329008888   -0.21622568   
0.008912517   -3.319266196   -0.24078227   
0.13471876   -3.439773042   -0.282715194   
0.271823273   -3.60265003   -0.330769817   
0.455264407   -4.057594853   -0.41409369   
0.008238996   -4.110446049   -0.449877571   
0.162539323   -4.212152639   -0.50137419   
0.317161538   -4.220237553   -0.544326844   
0.006165206   -4.114917946   -0.603896806   
0.483262533   -4.257353938   0.996291345   
0.004914775   -3.025876481   0.678416353   
0.117169945   -3.029259265   0.647965839   
0.231200317   -3.053437209   0.623452357   
0.530289488   -4.700188751   0.916593631   
0.005001728   -3.079410637   0.57151411   
0.118080047   -3.063865116   0.538105306   
0.229071509   -3.03587881   0.504342721   
0.34056016   -3.039005262   0.476960685   
0.005541407   -3.305128658   0.488236467   
0.133284465   -3.488439804   0.48124739   
0.228119139   -3.044503018   0.391211438   
0.340680681   -3.054530836   0.364421966   
0.005245961   -3.128912256   0.34609894   
0.128209254   -3.383467571   0.340762681   
0.229393253   -3.07664131   0.281533585   
0.339107615   -3.05397362   0.251275711   
0.004198084   -3.384800144   0.249692903   
0.116598036   -3.088441842   0.198346208   
0.224713924   -3.028137107   0.166043579   
0.342349639   -3.097959032   0.140879741   
0.00282918   -3.054888477   0.113566053   
0.113016702   -3.035741561   0.083793455   
0.225067165   -3.050208694   0.055255255   
0.378133936   -3.425060139   0.029891215   
0.001697255   -3.032998715   0.002064498   
0.112604073   -3.041793906   -0.027307335   
0.251195884   -3.422221419   -0.062651602   
0.36118294   -3.289945621   -0.092333016   
4.80942E-4   -3.417789698   -0.122935449   
0.124401323   -3.40223701   -0.15418112   
0.241607902   -3.31218382   -0.182590405   
0.363066912   -3.317246864   -0.21538834   
-0.001273182   -3.325262133   -0.24121637   
0.123517985   -3.422242282   -0.281241885   
0.260984837   -3.606446685   -0.331043314   
0.443353241   -4.063917906   -0.414598185   
-0.00434634   -4.086594439   -0.447266411   
0.149404395   -4.206677363   -0.500665493   
0.303143124   -4.206351926   -0.542413356   
-0.006443684   -4.105023592   -0.602444778   
0.46998509   -4.256880157   0.99583835   
-0.004369915   -3.026853004   0.678635159   
0.107597373   -3.02178602   0.646293631   
0.219204933   -3.017971275   0.616070679   
0.340699229   -3.105252486   0.605355103   
-0.004415985   -3.058764262   0.567682129   
0.108714592   -3.065197089   0.538278158   
0.218688321   -3.021807735   0.501891302   
0.330806926   -3.036106692   0.476344253   
-0.00462201   -3.321947594   0.49072073   
0.122059677   -3.473982084   0.479198928   
0.219772753   -3.05903937   0.392990816   
0.332271308   -3.064447012   0.365481677   
-0.004343751   -3.12195609   0.345329354   
0.119386427   -3.428591678   0.345268821   
0.220592146   -3.086270564   0.28235148   
0.330057418   -3.057972526   0.25152021   
-0.006111624   -3.343908154   0.246676579   
0.106292147   -3.064848723   0.196809138   
0.214997635   -3.022836184   0.165715976   
0.331990174   -3.091048505   0.140518507   
-0.006519555   -3.043890507   0.113157404   
0.103497896   -3.030079877   0.083628022   
0.216765933   -3.065844885   0.055526202   
0.368904405   -3.438135285   0.029995305   
-0.00762793   -3.040989763   0.002069943   
0.103508933   -3.04912088   -0.027370131   
0.239853874   -3.411007562   -0.062432547   
0.35108782   -3.291038385   -0.092333016   
-0.009969587   -3.405782864   -0.12250409   
0.113394343   -3.385629606   -0.153412026   
0.2305405   -3.299960752   -0.181876743   
0.355842845   -3.346130172   -0.217191827   
-0.011454286   -3.319258441   -0.24078227   
0.113610175   -3.440535081   -0.282715194   
0.25033217   -3.613191118   -0.331590364   
0.433714533   -4.091971348   -0.417322474   
-0.016846852   -4.077615353   -0.446287255   
0.13665878   -4.212078238   -0.501256055   
0.290578091   -4.212209708   -0.543051187   
-0.019010157   -4.099048328   -0.601573539   
0.457962147   -4.267986779   0.998103092   
-0.013669356   -3.029752557   0.679291466   
0.098421557   -3.025034169   0.646920731   
0.21028483   -3.0235171   0.617068221   
0.328672998   -3.082854306   0.600789269   
-0.013902147   -3.081349809   0.571879069   
0.099501542   -3.071422801   0.53931528   
0.210098438   -3.032306369   0.503525601   
0.321906756   -3.041037506   0.476960684   
-0.013944529   -3.127034585   0.461932192   
0.111305837   -3.471369682   0.478789264   
0.209910423   -3.052772474   0.392101128   
0.322868147   -3.065451781   0.365481676   
-0.013952783   -3.128885634   0.346098941   
0.110351076   -3.475681997   0.349975204   
0.210578959   -3.078984469   0.281624482   
0.319738924   -3.050049517   0.250786685   
-0.016214326   -3.311960892   0.244322375   
0.097960808   -3.099073516   0.198986659   
0.206061612   -3.028462675   0.16598898   
0.320536399   -3.07317427   0.139660587   
-0.01591011   -3.053849034   0.113528904   
0.094263377   -3.032381354   0.083683164   
0.206751928   -3.057517602   0.055363631   
0.356903794   -3.425326731   0.029873868   
-0.017007705   -3.04995187   0.002076069   
0.093968712   -3.043427081   -0.027316306   
0.229857432   -3.418710291   -0.062560332   
0.340783454   -3.29011124   -0.092277241   
-0.020418335   -3.405736278   -0.122504091   
0.103401739   -3.398942282   -0.15400016   
0.220282224   -3.298659853   -0.181766937   
0.346395258   -3.35514746   -0.21770711   
-0.02158556   -3.311228884   -0.24020345   
0.102338158   -3.416958693   -0.280750773   
0.238982748   -3.609967482   -0.331225674   
0.422584071   -4.107138232   -0.418735075   
-0.029349565   -4.076550783   -0.446178448   
0.123735663   -4.212477538   -0.501256054   
0.277262522   -4.207143117   -0.542285744   
-0.031479037   -4.085119386   -0.599540721   
0.445168812   -4.272277906   0.998782583   
-0.022905273   -3.021890558   0.677541295   
0.08914042   -3.025321825   0.64692073   
0.202502556   -3.046635993   0.621656824   
0.317899327   -3.071153438   0.598316094   
-0.023161769   -3.055729939   0.567134718   
0.090280178   -3.078605246   0.540525312   
0.203205819   -3.069359309   0.50957249   
0.312070493   -3.037096483   0.476190146   
-0.023307232   -3.096310642   0.457402001   
0.100282078   -3.458822106   0.47701394   
0.199438553   -3.036576127   0.389940458   
0.308816597   -3.020984844   0.360065374   
-0.023484668   -3.119882828   0.345109444   
0.098945718   -3.45014546   0.347371673   
0.200612567   -3.071665921   0.280897454   
0.307454728   -3.022260965   0.248423092   
-0.025739847   -3.232114838   0.238436849   
0.088424054   -3.098362098   0.198922615   
0.196510536   -3.02509504   0.165770574   
0.312313522   -3.086070071   0.140202438   
-0.025370104   -3.064777905   0.113937546   
0.085015707   -3.034654677   0.083738313   
0.196919857   -3.051153197   0.055237191   
0.341263841   -3.375666029   0.029431485   
-0.026382034   -3.051885379   0.00207743   
0.084047505   -3.022710031   -0.027127918   
0.219111855   -3.41540831   -0.062487309   
0.328289452   -3.267270778   -0.091607963   
-0.030812548   -3.399661736   -0.122288411   
0.092836884   -3.39425052   -0.15377396   
0.210351467   -3.302309692   -0.181931639   
0.332619833   -3.321440825   -0.215452757   
-0.032002327   -3.338074936   -0.242156931   
0.09180104   -3.415263861   -0.280587069   
0.227216335   -3.599751239   -0.330222795   
0.410673109   -4.115345168   -0.419441389   
-0.041896933   -4.08041716   -0.44661365   
0.110863609   -4.214822781   -0.501492268   
0.26354546   -4.19510561   -0.540627423   
-0.044193066   -4.10182243   -0.60200913   
0.432647387   -4.279438098   1.000141451   
-0.032207365   -3.024733262   0.678197603   
0.079806834   -3.023626025   0.646502665   
0.192348811   -3.034529921   0.61906325   
0.308181425   -3.069183811   0.597745379   
-0.032609788   -3.062526607   0.568412046   
0.080886426   -3.080837127   0.540871021   
0.193353147   -3.063076293   0.508428499   
0.303633144   -3.046888328   0.477577116   
-0.032858875   -3.101170638   0.458132693   
0.08135257   -3.138256767   0.432767594   
0.191670768   -3.061922515   0.393117923   
0.30189781   -3.045634941   0.36289126   
-0.033098345   -3.123771527   0.345549236   
0.088818845   -3.468336533   0.349174118   
0.191435299   -3.076242763   0.281260954   
0.300529011   -3.046994564   0.250379168   
-0.035435684   -3.212076062   0.236965478   
0.078765552   -3.092632901   0.198538343   
0.188708826   -3.04960209   0.167081012   
0.301478642   -3.073094807   0.139570286   
-0.034670553   -3.055692471   0.113603201   
0.075879605   -3.041896385   0.08393132   
0.187128795   -3.044757299   0.055110747   
0.333734078   -3.405557951   0.029683037   
-0.035721538   -3.049790072   0.002076069   
0.074823019   -3.024952909   -0.027145859   
0.208266799   -3.410076651   -0.062377778   
0.319911083   -3.285176025   -0.092082036   
-0.041242417   -3.399551215   -0.122288411   
0.083029263   -3.41948623   -0.154904973   
0.199675382   -3.293969436   -0.181437561   
0.323584935   -3.334364782   -0.216225681   
-0.042356835   -3.346936813   -0.242808083   
0.081322724   -3.415529522   -0.280587069   
0.215634248   -3.591484994   -0.329402248   
0.397470953   -4.110644089   -0.418835985   
-0.054653886   -4.098161377   -0.448571992   
0.097655414   -4.203230045   -0.500074987   
0.25014147   -4.186983857   -0.539479318   
-0.056338849   -4.070009645   -0.597362707   
0.071764419   -3.04711805   0.771140033   
0.418946226   -4.27492907   0.998782583   
-0.041486962   -3.024620238   0.678197603   
0.070210861   -3.010169464   0.643576373   
0.183215063   -3.038039979   0.619661797   
0.297812988   -3.060343624   0.595842918   
-0.042059272   -3.066344671   0.569141964   
0.071479829   -3.083040119   0.541216728   
0.183600073   -3.057746433   0.507447886   
0.293904152   -3.043871569   0.476960685   
-0.042521655   -3.111936229   0.459740172   
0.071407284   -3.124626229   0.430855715   
0.181627768   -3.05160455   0.391719836   
0.294261132   -3.06433956   0.365010681   
-0.042804006   -3.132599993   0.346538704   
0.070711937   -3.137350457   0.315828835   
0.182702248   -3.088745089   0.282351479   
0.290800406   -3.043933773   0.25005316   
-0.044530742   -3.158103863   0.232992754   
0.069545286   -3.104832281   0.199306885   
0.176245466   -2.997336903   0.164187131   
0.290253907   -3.055109626   0.138712366   
-0.043886687   -3.044580458   0.113194552   
0.066350087   -3.033120399   0.083683164   
0.176970923   -3.031343052   0.054857863   
0.321017087   -3.382673988   0.029474856   
-0.044974535   -3.042666975   0.002071304   
0.065910456   -3.042163687   -0.027298363   
0.19780385   -3.410699474   -0.062377778   
0.310581469   -3.294103595   -0.092305129   
-0.051747843   -3.404404788   -0.122468149   
0.072008409   -3.394756061   -0.15377396   
0.189568683   -3.294566517   -0.181437561   
0.314193826   -3.344283683   -0.216805366   
-0.052593533   -3.344796604   -0.242663392   
0.071008973   -3.423734258   -0.281241885   
0.204784609   -3.595112472   -0.329675745   
0.384301506   -4.10590054   -0.41823058   
-0.067275522   -4.100956246   -0.448898387   
0.084719592   -4.201524499   -0.499838717   
0.236789806   -4.178819157   -0.538331213   
-0.068775009   -4.066849969   -0.596927058   
0.06237595   -3.045385417   0.770649487   
0.402700112   -4.243225956   0.991082258   
-0.050651538   -3.01764905   0.67666618   
0.061232907   -3.023080993   0.646293631   
0.171766131   -3.001412695   0.612080566   
0.287501697   -3.051468816   0.593940459   
-0.051235477   -3.052438177   0.566587308   
0.062119904   -3.088168705   0.542080997   
0.173432651   -3.044505806   0.5051599   
0.284748212   -3.046726303   0.477268899   
-0.052201147   -3.119704149   0.460909257   
0.061350465   -3.101060042   0.427578204   
0.172600083   -3.05808934   0.392482419   
0.285409818   -3.071160645   0.365717146   
-0.052913355   -3.162267884   0.349836986   
0.061105719   -3.138547479   0.315928971   
0.174005802   -3.103211241   0.283623741   
0.282744738   -3.058705707   0.251194202   
-0.054014018   -3.145986738   0.23210992   
0.06397319   -3.309572047   0.21243603   
0.168826649   -3.029766316   0.165934382   
0.281428213   -3.061954522   0.138983284   
-0.053541557   -3.062416257   0.113863249   
0.056818749   -3.021316476   0.083352291   
0.168498202   -3.046846334   0.055128811   
0.307163809   -3.345803413   0.029145237   
-0.054326944   -3.043514431   0.002071985   
0.056595515   -3.043351286   -0.027307335   
0.187339031   -3.411290328   -0.062377778   
0.3013816   -3.304995708   -0.092583996   
-0.062265186   -3.408226942   -0.12261193   
0.061339409   -3.380977628   -0.153140586   
0.1799489   -3.304105701   -0.181931639   
0.303841933   -3.344238091   -0.216740963   
-0.062761276   -3.339633464   -0.242301622   
0.0605576   -3.426925506   -0.281487427   
0.193753999   -3.595723689   -0.329675745   
0.369909489   -4.087243327   -0.416212576   
-0.08014708   -4.115638638   -0.450530362   
0.071506615   -4.182900265   -0.497594661   
0.22359674   -4.172593243   -0.537438218   
-0.081607366   -4.084425524   -0.599540721   
0.053100061   -3.049439618   0.771630579   
0.166693299   -3.057551576   0.743231056   
0.389056851   -4.237651551   0.989496891   
-0.059715621   -3.007723803   0.674478452   
0.051705882   -3.008588164   0.643158308   
0.164623534   -3.04008558   0.619861295   
0.277693123   -3.047447922   0.592989284   
-0.060599982   -3.052266697   0.566587309   
0.052762753   -3.095238218   0.543291028   
0.16557785   -3.072607159   0.509735927   
0.275488572   -3.048569623   0.477423036   
-0.063730545   -3.218436352   0.475522736   
0.051852811   -3.102224266   0.427714759   
0.168608428   -3.159633493   0.405446548   
0.274298037   -3.053229795   0.363480004   
-0.062555777   -3.159109562   0.349507164   
0.051443868   -3.136730386   0.315728699   
0.166434457   -3.140525735   0.286986157   
0.273359421   -3.059558736   0.251194202   
-0.063625158   -3.143812121   0.231962786   
0.056496437   -3.474392177   0.223003397   
0.159110702   -3.02229302   0.16549757   
0.272032947   -3.062803641   0.138983285   
-0.062998267   -3.065235002   0.113974695   
0.04758067   -3.023475519   0.08340744   
0.159201957   -3.048347511   0.055146875   
0.297692824   -3.355694564   0.029223304   
-0.063496741   -3.035335102   0.002066539   
0.047320479   -3.047510039   -0.027343217   
0.176872456   -3.411848974   -0.062377778   
0.289398412   -3.284993994   -0.091998373   
-0.072657224   -3.405022403   -0.122504091   
0.051116992   -3.391138546   -0.153592986   
0.169862444   -3.305639482   -0.181986535   
0.292446313   -3.332231249   -0.215903622   
-0.072614441   -3.321476727   -0.24099932   
0.049825378   -3.412147121   -0.280259661   
0.182266775   -3.587350314   -0.328855198   
0.3587544   -4.104216785   -0.417826996   
-0.092862919   -4.119348503   -0.450965535   
0.058353002   -4.160263417   -0.494878179   
0.210694277   -4.171278243   -0.537183108   
-0.09438861   -4.095036362   -0.601137947   
0.043438359   -3.028262395   0.76623457   
0.155714491   -3.026992695   0.7356832   
0.376054081   -4.238825283   0.989496892   
-0.068920544   -3.006550849   0.674259644   
0.042434006   -3.005799254   0.642531267   
0.155145955   -3.037640508   0.619262747   
0.267911914   -3.043395744   0.592038054   
-0.069783655   -3.044202804   0.565127473   
0.042991131   -3.075688494   0.539833898   
0.156200507   -3.074085938   0.509899363   
0.266392107   -3.05235339   0.47788533   
-0.075911475   -3.319104241   0.490428487   
0.042672999   -3.127132327   0.431128825   
0.174307252   -3.466243103   0.444720226   
0.265873597   -3.064939585   0.364775184   
-0.071952048   -3.14598484   0.348077904   
0.041780483   -3.133888783   0.315428292   
0.156153203   -3.128091543   0.285804764   
0.263971547   -3.060383125   0.251194202   
-0.072688981   -3.118676581   0.230123566   
0.046205477   -3.502489243   0.224796647   
0.150282611   -3.031742652   0.165988981   
0.262293799   -3.059642534   0.138802668   
-0.072236782   -3.058033949   0.113714647   
0.038557808   -3.043597951   0.083958894   
0.149652674   -3.044827095   0.055074623   
0.284495898   -3.322717315   0.028928382   
-0.072712792   -3.031127331   0.002063817   
0.038120119   -3.059639344   -0.027450869   
0.165186756   -3.387409411   -0.0619214   
0.280250173   -3.296822566   -0.092305129   
-0.082493726   -3.379807042   -0.121605446   
0.040592964   -3.381290404   -0.153140586   
0.159286454   -3.297169197   -0.181492458   
0.283316356   -3.346039391   -0.216740962   
-0.08414661   -3.375080145   -0.244906256   
0.03932234   -3.409294171   -0.28001409   
0.1709752   -3.581924482   -0.328308176   
0.345074461   -4.092410228   -0.416515278   
-0.106213132   -4.146868727   -0.454011868   
0.045404251   -4.143542659   -0.492870278   
0.198083977   -4.175867886   -0.537693383   
-0.107184065   -4.10362919   -0.602444779   
0.034912728   -3.096238877   0.783403689   
0.146286234   -3.02454402   0.734975572   
0.363213974   -4.241900103   0.989949772   
-0.078220255   -3.009251668   0.674916009   
0.033233754   -3.007870932   0.642949275   
0.14545004   -3.030272044   0.617666713   
0.257908948   -3.036377827   0.590516111   
-0.079480488   -3.057734585   0.567682128   
0.033716013   -3.090579247   0.54242676   
0.146345236   -3.065681751   0.508428499   
0.256446159   -3.046264442   0.476806577   
-0.085863104   -3.309955307   0.489113251   
0.032869335   -3.107437007   0.428397562   
0.164935126   -3.49351289   0.448151904   
0.25638644   -3.064751301   0.364657464   
-0.081835426   -3.154691841   0.349067372   
0.032349453   -3.151910925   0.317230737   
0.161281086   -3.442903752   0.314521567   
0.25416817   -3.056212379   0.250786685   
-0.083387368   -3.161307445   0.233287037   
0.035419362   -3.498622939   0.224540467   
0.142650155   -3.068096844   0.167954637   
0.252165254   -3.051472466   0.138396283   
-0.08145838   -3.051804193   0.113491748   
0.029181615   -3.039703746   0.083848604   
0.139988453   -3.038280411   0.054948179   
0.25702831   -3.114294008   0.027106805   
-0.081822475   -3.023892579   0.002059052   
0.028657977   -3.051742662   -0.027379101   
0.155797514   -3.409873677   -0.062323016   
0.269807917   -3.293681764   -0.092193579   
-0.093466333   -3.401515537   -0.122396251   
0.030156631   -3.374406499   -0.152823892   
0.149170128   -3.297642208   -0.181492457   
0.272806076   -3.343908985   -0.216547724   
-0.093160771   -3.326950571   -0.241433421   
0.028879462   -3.41139196   -0.280177794   
0.159318792   -3.567509289   -0.326940607   
0.332920251   -4.098407787   -0.417019772   
-0.118935051   -4.146523513   -0.454011869   
0.032566481   -4.12777507   -0.490980571   
0.185403515   -4.179428483   -0.538076046   
-0.120495018   -4.128005771   -0.606074822   
0.025055387   -3.052707643   0.7723664   
0.137226222   -3.029832681   0.736154912   
0.350198299   -4.242994559   0.989949772   
-0.087593882   -3.013874325   0.676009874   
0.024060207   -3.014803916   0.644412449   
0.135844776   -3.023851483   0.616270175   
0.249633383   -3.049874827   0.592989286   
-0.088861111   -3.057476431   0.567682129   
0.024264983   -3.094607847   0.543118175   
0.137027204   -3.068087422   0.508755313   
0.247418596   -3.050976054   0.477423036   
-0.09584537   -3.303743417   0.488236467   
0.023358014   -3.110494894   0.428807253   
0.154347609   -3.49697512   0.448533195   
0.24658397   -3.06057424   0.36406872   
-0.090187634   -3.10872395   0.344010036   
0.022765282   -3.163934669   0.318432367   
0.15110958   -3.452336545   0.315339433   
0.244790664   -3.056977584   0.250786685   
-0.098399045   -3.341468137   0.246602999   
0.024326484   -3.447821293   0.221274192   
0.132500332   -3.051561428   0.167026414   
0.24232698   -3.046256617   0.138125365   
-0.089958666   -3.022572746   0.112414416   
0.019797035   -3.030782465   0.083600447   
0.130580567   -3.03669782   0.054912055   
0.245492801   -3.09014726   0.02688995   
-0.090978799   -3.01962898   0.002056329   
0.01915614   -3.029817412   -0.027181743   
0.144569174   -3.392354888   -0.061994423   
0.260801535   -3.308445459   -0.092583997   
-0.103535426   -3.389226237   -0.121964907   
0.019927069   -3.395461417   -0.15377396   
0.139388888   -3.306065265   -0.181931639   
0.260983983   -3.324832953   -0.215259519   
-0.10327435   -3.323658448   -0.241216371   
0.018321874   -3.394521859   -0.278786324   
0.147752436   -3.553056877   -0.325573038   
0.321740095   -4.117263706   -0.418835985   
-0.132002888   -4.15706828   -0.455208641   
0.019811528   -4.108988596   -0.488736457   
0.173071326   -4.191869663   -0.539606872   
-0.134371278   -4.165194456   -0.611592543   
0.017726194   -4.175251851   -0.65271303   
0.015629906   -3.041136835   0.769423122   
0.127643241   -3.023443065   0.734503862   
0.336947895   -4.241135903   0.989270395   
-0.096965261   -3.01749247   0.676884931   
